ply
format ascii 1.0
element vertex 1422
property float x
property float y
property float z
end_header
-0.00675300 0.02625329 0.01611107
-0.00672881 0.02625024 0.01616265
-0.00670466 0.02624718 0.01621424
-0.00668050 0.02624413 0.01626579
-0.00663781 0.02623700 0.01637261
-0.00663611 0.02622986 0.01643901
-0.00659345 0.02622274 0.01654573
-0.00659175 0.02621561 0.01661205
-0.00656596 0.02620544 0.01672977
-0.00657380 0.02618916 0.01686959
-0.00654970 0.02618612 0.01692099
-0.00654243 0.02618002 0.01698343
-0.00650153 0.02618003 0.01702375
-0.00647184 0.02617801 0.01707143
-0.00643094 0.02617803 0.01711173
-0.00639005 0.02617804 0.01715204
0.01250874 0.02621142 0.03553130
0.01255594 0.02621246 0.03556861
0.01259060 0.02621145 0.03561199
0.01263781 0.02621248 0.03564931
0.01268502 0.02621351 0.03568660
0.01277944 0.02621558 0.03576122
0.02342176 0.02638889 0.04471022
-0.00755718 0.02629574 0.01440457
-0.00753285 0.02629267 0.01445652
-0.00751972 0.02628754 0.01451605
-0.00747108 0.02628141 0.01461987
-0.00744116 0.02627936 0.01466798
-0.00740565 0.02627835 0.01471229
-0.00738135 0.02627528 0.01476417
-0.00736265 0.02627119 0.01481982
-0.00734396 0.02626710 0.01487546
-0.00730847 0.02626609 0.01491975
-0.00725991 0.02625996 0.01502343
-0.00724123 0.02625587 0.01507901
-0.00722256 0.02625179 0.01513457
-0.00712737 0.02624670 0.01527486
-0.00711434 0.02624159 0.01533416
-0.00708269 0.02623241 0.01544891
-0.00701179 0.02623039 0.01553734
-0.00698195 0.02622835 0.01558530
-0.00694652 0.02622734 0.01562951
-0.00692230 0.02622428 0.01568121
-0.00691493 0.02621816 0.01574411
-0.00685531 0.02621410 0.01583996
-0.00683111 0.02621105 0.01589161
-0.00681254 0.02620697 0.01594698
-0.00677539 0.02619883 0.01605768
-0.00674562 0.02619680 0.01610556
-0.00671583 0.02619477 0.01615343
-0.00669166 0.02619172 0.01620501
-0.00667311 0.02618765 0.01626030
-0.00663044 0.02618054 0.01636713
-0.00661750 0.02617545 0.01642609
-0.00658776 0.02617343 0.01647390
-0.00654511 0.02616632 0.01658062
-0.00654343 0.02615920 0.01664692
-0.00654569 0.02614396 0.01678314
0.01259238 0.02615403 0.03561022
0.01263958 0.02615506 0.03564753
-0.00764915 0.02625849 0.01412385
-0.00761920 0.02625645 0.01417206
-0.00758924 0.02625441 0.01422025
-0.00757609 0.02624929 0.01427985
-0.00755735 0.02624520 0.01433563
-0.00753300 0.02624213 0.01438760
-0.00747313 0.02623805 0.01448389
-0.00745441 0.02623396 0.01453962
-0.00744130 0.02622885 0.01459913
-0.00739267 0.02622272 0.01470293
-0.00735717 0.02622171 0.01474725
-0.00732726 0.02621968 0.01479535
-0.00731418 0.02621457 0.01485478
-0.00729549 0.02621048 0.01491041
-0.00724132 0.02620539 0.01501032
-0.00721143 0.02620336 0.01505837
-0.00718716 0.02620030 0.01511017
-0.00717410 0.02619520 0.01516952
-0.00709574 0.02618706 0.01532108
-0.00708272 0.02618196 0.01538036
-0.00705287 0.02617993 0.01542835
-0.00703424 0.02617585 0.01548384
-0.00696896 0.02617282 0.01557602
-0.00693353 0.02617181 0.01562023
-0.00690371 0.02616978 0.01566818
-0.00690193 0.02616265 0.01573485
-0.00684792 0.02615757 0.01583444
-0.00681812 0.02615554 0.01588236
-0.00679393 0.02615250 0.01593401
-0.00676800 0.02614233 0.01605217
-0.00673823 0.02614030 0.01610006
-0.00670846 0.02613828 0.01614792
-0.00667867 0.02613625 0.01619577
-0.00666013 0.02613219 0.01625108
-0.00662304 0.02612407 0.01636162
-0.00659329 0.02612205 0.01640945
-0.00656916 0.02611901 0.01646098
-0.00656186 0.02611292 0.01652364
-0.00651923 0.02610582 0.01663032
-0.00652316 0.02609771 0.01670033
0.01341927 0.02615070 0.03593183
-0.00768854 0.02620073 0.01408149
-0.00764738 0.02620074 0.01412206
-0.00761741 0.02619870 0.01417027
-0.00758184 0.02619769 0.01421465
-0.00755750 0.02619463 0.01426665
-0.00753315 0.02619157 0.01431863
-0.00751442 0.02618748 0.01437441
-0.00748448 0.02618545 0.01442257
-0.00745454 0.02618342 0.01447072
-0.00739467 0.02617934 0.01456700
-0.00738157 0.02617424 0.01462652
-0.00736848 0.02616914 0.01468600
-0.00730865 0.02616507 0.01478221
-0.00727876 0.02616304 0.01483030
-0.00726007 0.02615896 0.01488595
-0.00724700 0.02615386 0.01494537
-0.00716858 0.02614573 0.01509709
-0.00716113 0.02613962 0.01516020
-0.00714247 0.02613554 0.01521576
-0.00705290 0.02612946 0.01535978
-0.00702867 0.02612641 0.01541155
-0.00702125 0.02612031 0.01547454
-0.00699142 0.02611828 0.01552252
-0.00692053 0.02611626 0.01561095
-0.00689071 0.02611424 0.01565891
-0.00688332 0.02610814 0.01572183
-0.00684054 0.02610104 0.01582893
-0.00681074 0.02609901 0.01587684
-0.00678094 0.02609699 0.01592475
-0.00677919 0.02608988 0.01599132
-0.00676063 0.02608582 0.01604667
-0.00669546 0.02608280 0.01613870
-0.00666568 0.02608077 0.01618656
-0.00664152 0.02607774 0.01623813
-0.00661005 0.02606862 0.01635242
-0.00657469 0.02606761 0.01639653
-0.00654493 0.02606560 0.01644436
-0.00652641 0.02606154 0.01649959
-0.00652474 0.02605445 0.01656594
-0.00649333 0.02604534 0.01668002
0.01338004 0.02609316 0.03588963
0.01342103 0.02609317 0.03593004
0.01346204 0.02609318 0.03597046
0.01351568 0.02609523 0.03600482
-0.00773354 0.02614194 0.01404294
-0.00768676 0.02614298 0.01407970
-0.00764559 0.02614299 0.01412028
-0.00761564 0.02614096 0.01416849
-0.00758007 0.02613995 0.01421287
-0.00755012 0.02613791 0.01426105
-0.00752017 0.02613588 0.01430923
-0.00749582 0.02613283 0.01436121
-0.00747149 0.02612977 0.01441318
-0.00744155 0.02612774 0.01446135
-0.00737609 0.02612470 0.01455384
-0.00735176 0.02612165 0.01460577
-0.00732183 0.02611962 0.01465390
-0.00730315 0.02611554 0.01470961
-0.00728445 0.02611147 0.01476529
-0.00720036 0.02610437 0.01491336
-0.00719289 0.02609826 0.01497654
-0.00708281 0.02608099 0.01524318
-0.00706415 0.02607693 0.01529871
-0.00701006 0.02607186 0.01539848
-0.00700827 0.02606475 0.01546526
-0.00697842 0.02606273 0.01551323
-0.00691316 0.02605970 0.01560542
-0.00688332 0.02605768 0.01565338
-0.00687034 0.02605261 0.01571257
-0.00683877 0.02604348 0.01582715
-0.00680335 0.02604248 0.01587132
-0.00677355 0.02604046 0.01591923
-0.00676058 0.02603539 0.01597834
-0.00674763 0.02603033 0.01603743
-0.00668806 0.02602629 0.01613318
-0.00665268 0.02602529 0.01617733
-0.00662291 0.02602327 0.01622519
-0.00661559 0.02601720 0.01628793
-0.00659706 0.02601315 0.01634321
-0.00653194 0.02601014 0.01643515
-0.00649491 0.02600205 0.01654562
-0.00207479 0.02627092 0.01845832
0.00385331 0.02497200 0.03618757
0.01338181 0.02603563 0.03588784
0.01342280 0.02603564 0.03592826
0.01345751 0.02603464 0.03597172
0.01350483 0.02603567 0.03600911
0.01355214 0.02603670 0.03604650
0.01360580 0.02603874 0.03608084
0.01807307 0.02492198 0.05070151
-0.00777292 0.02608418 0.01400058
-0.00772615 0.02608521 0.01403733
-0.00768499 0.02608523 0.01407792
-0.00764382 0.02608524 0.01411849
-0.00761387 0.02608321 0.01416671
-0.00757830 0.02608220 0.01421108
-0.00754274 0.02608119 0.01425547
-0.00750718 0.02608019 0.01429984
-0.00748284 0.02607714 0.01435183
-0.00745289 0.02607511 0.01439999
-0.00742856 0.02607206 0.01445196
-0.00739864 0.02607003 0.01450012
-0.00736310 0.02606903 0.01454446
-0.00729762 0.02606599 0.01463695
-0.00726771 0.02606397 0.01468508
-0.00723779 0.02606194 0.01473321
-0.00721350 0.02605889 0.01478512
-0.00720043 0.02605381 0.01484457
-0.00712197 0.02604570 0.01499639
-0.00705297 0.02602845 0.01522256
-0.00706238 0.02601931 0.01529693
-0.00700268 0.02601527 0.01539295
-0.00698406 0.02601122 0.01544846
-0.00696543 0.02600717 0.01550395
-0.00694120 0.02600413 0.01555566
-0.00690576 0.02600313 0.01559989
-0.00686295 0.02599605 0.01570705
-0.00684997 0.02599099 0.01576621
-0.00682577 0.02598796 0.01581788
-0.00676617 0.02598392 0.01591372
-0.00674760 0.02597988 0.01596910
-0.00673464 0.02597483 0.01602818
-0.00670485 0.02597282 0.01607607
-0.00667506 0.02597080 0.01612395
-0.00661553 0.02596677 0.01621969
-0.00659698 0.02596273 0.01627498
-0.00658967 0.02595667 0.01633771
-0.00652455 0.02595366 0.01642965
-0.00647068 0.02594863 0.01652900
0.00384924 0.02491562 0.03618878
0.01289187 0.02595167 0.03564198
0.01295801 0.02595573 0.03567018
0.01333626 0.02597708 0.03584869
0.01338357 0.02597811 0.03588607
0.01343089 0.02597913 0.03592345
0.01346558 0.02597813 0.03596691
0.01350659 0.02597814 0.03600733
0.01354760 0.02597816 0.03604775
0.01360124 0.02598020 0.03608211
0.01364858 0.02598122 0.03611949
0.01369591 0.02598225 0.03615689
0.01373693 0.02598226 0.03619731
0.01378426 0.02598329 0.03623471
-0.00779553 0.02602948 0.01394676
-0.00775996 0.02602847 0.01399116
-0.00771879 0.02602848 0.01403175
-0.00767761 0.02602849 0.01407232
-0.00764205 0.02602749 0.01411671
-0.00760648 0.02602648 0.01416110
-0.00756530 0.02602649 0.01420168
-0.00752975 0.02602549 0.01424607
-0.00749418 0.02602448 0.01429044
-0.00746423 0.02602246 0.01433863
-0.00742869 0.02602145 0.01438301
-0.00740436 0.02601841 0.01443498
-0.00737442 0.02601639 0.01448314
-0.00734448 0.02601436 0.01453129
-0.00732017 0.02601132 0.01458324
-0.00728463 0.02601031 0.01462758
-0.00721356 0.02600830 0.01471628
-0.00718366 0.02600628 0.01476440
-0.00717621 0.02600019 0.01482766
-0.00701572 0.02596981 0.01526504
-0.00700831 0.02596373 0.01532812
-0.00695984 0.02595767 0.01543165
-0.00692999 0.02595565 0.01547964
-0.00691700 0.02595060 0.01553889
-0.00689277 0.02594757 0.01559061
-0.00684434 0.02594151 0.01569402
-0.00682576 0.02593748 0.01574946
-0.00681278 0.02593243 0.01580863
-0.00675318 0.02592840 0.01590447
-0.00672898 0.02592538 0.01595611
-0.00671041 0.02592134 0.01601148
-0.00669186 0.02591731 0.01606683
-0.00666769 0.02591429 0.01611844
-0.00660251 0.02591128 0.01621046
-0.00658399 0.02590725 0.01626577
-0.00657669 0.02590120 0.01632850
-0.00655253 0.02589818 0.01638005
-0.00207122 0.02615492 0.01845474
0.00650901 0.02565037 0.03156558
0.00660682 0.02564644 0.03169835
0.00073430 0.02399091 0.04108091
0.01286525 0.02589621 0.03559372
0.01293766 0.02590127 0.03561887
0.01303852 0.02590433 0.03569052
0.01310468 0.02590838 0.03571874
0.01320240 0.02591749 0.03573174
0.01325601 0.02591953 0.03576607
0.01329702 0.02591954 0.03580649
0.01334433 0.02592056 0.03584386
0.01339796 0.02592260 0.03587821
0.01343897 0.02592262 0.03591863
0.01347367 0.02592162 0.03596210
0.01351468 0.02592163 0.03600252
0.01355569 0.02592164 0.03604294
0.01359670 0.02592166 0.03608336
0.01364402 0.02592268 0.03612076
0.01369768 0.02592472 0.03615510
0.01373871 0.02592473 0.03619553
0.01378603 0.02592575 0.03623293
0.01383971 0.02592779 0.03626730
0.01389340 0.02592983 0.03630168
-0.00785731 0.02596764 0.01391967
-0.00780493 0.02596969 0.01395261
-0.00776377 0.02596970 0.01399319
-0.00772260 0.02596971 0.01403376
-0.00768143 0.02596973 0.01407434
-0.00764026 0.02596974 0.01411492
-0.00760470 0.02596874 0.01415931
-0.00756915 0.02596773 0.01420370
-0.00752798 0.02596774 0.01424428
-0.00749241 0.02596674 0.01428866
-0.00746246 0.02596472 0.01433685
-0.00742692 0.02596371 0.01438122
-0.00739136 0.02596271 0.01442559
-0.00736143 0.02596069 0.01447376
-0.00733149 0.02595867 0.01452192
-0.00730717 0.02595564 0.01457386
-0.00727163 0.02595463 0.01461822
-0.00724171 0.02595261 0.01466636
-0.00720057 0.02595263 0.01470691
-0.00713512 0.02594960 0.01479938
-0.00710522 0.02594758 0.01484749
-0.00709216 0.02594252 0.01490696
-0.00697285 0.02591218 0.01530376
-0.00696546 0.02590612 0.01536682
-0.00691698 0.02590007 0.01547035
-0.00689276 0.02589705 0.01552209
-0.00687978 0.02589200 0.01558132
-0.00683695 0.02588494 0.01568850
-0.00680713 0.02588294 0.01573645
-0.00678293 0.02587992 0.01578814
-0.00676435 0.02587589 0.01584355
-0.00674017 0.02587287 0.01589521
-0.00668618 0.02586784 0.01599477
-0.00666201 0.02586482 0.01604640
-0.00664906 0.02585979 0.01610548
-0.00661929 0.02585778 0.01615336
-0.00658952 0.02585578 0.01620123
-0.00656536 0.02585276 0.01625282
0.01279461 0.02583368 0.03556681
0.01289217 0.02584276 0.03557975
0.01299299 0.02584581 0.03565140
0.01305917 0.02584986 0.03567961
0.01314425 0.02585693 0.03569870
0.01321678 0.02586199 0.03572387
0.01326409 0.02586301 0.03576125
0.01330510 0.02586303 0.03580167
0.01335871 0.02586506 0.03583600
0.01341236 0.02586709 0.03587034
0.01345338 0.02586710 0.03591077
0.01348175 0.02586510 0.03595728
0.01352276 0.02586511 0.03599770
0.01356378 0.02586512 0.03603813
0.01360479 0.02586514 0.03607855
0.01364580 0.02586515 0.03611898
0.01369314 0.02586617 0.03615636
0.01373415 0.02586619 0.03619678
0.01378781 0.02586822 0.03623116
0.01384148 0.02587025 0.03626553
0.01389515 0.02587228 0.03629991
0.01394251 0.02587331 0.03633732
-0.00786671 0.02590786 0.01392552
-0.00781436 0.02590991 0.01395846
-0.00777319 0.02590992 0.01399904
-0.00773203 0.02590993 0.01403962
-0.00768526 0.02591096 0.01407637
-0.00764409 0.02591097 0.01411695
-0.00757296 0.02590897 0.01420572
-0.00753179 0.02590898 0.01424630
-0.00749624 0.02590798 0.01429068
-0.00746068 0.02590698 0.01433506
-0.00742514 0.02590597 0.01437943
-0.00738958 0.02590497 0.01442380
-0.00735404 0.02590397 0.01446818
-0.00732410 0.02590196 0.01451633
-0.00729978 0.02589893 0.01456828
-0.00725862 0.02589894 0.01460885
-0.00722872 0.02589692 0.01465700
-0.00718756 0.02589693 0.01469755
-0.00714642 0.02589695 0.01473811
-0.00711650 0.02589493 0.01478624
-0.00706230 0.02588989 0.01488626
-0.00706050 0.02588281 0.01495327
-0.00697646 0.02587576 0.01510131
-0.00699151 0.02586565 0.01517954
-0.00695986 0.02585657 0.01529445
-0.00695807 0.02584951 0.01536128
-0.00690961 0.02584347 0.01546481
-0.00688538 0.02584045 0.01551656
-0.00686677 0.02583642 0.01557204
-0.00682957 0.02582837 0.01568297
-0.00679414 0.02582738 0.01572718
-0.00676994 0.02582436 0.01577887
-0.00675696 0.02581933 0.01583803
-0.00672717 0.02581733 0.01588596
-0.00667880 0.02581130 0.01598926
-0.00664902 0.02580930 0.01603717
-0.00663045 0.02580528 0.01609251
-0.00660628 0.02580227 0.01614412
-0.00658774 0.02579825 0.01619945
-0.01129010 0.02306691 0.03670874
0.01296638 0.02579032 0.03560312
0.01302625 0.02579335 0.03563438
0.01310502 0.02579941 0.03565650
0.01316494 0.02580244 0.03568777
0.01323116 0.02580648 0.03571600
0.01327847 0.02580750 0.03575338
0.01331949 0.02580752 0.03579381
0.01337942 0.02581055 0.03582510
0.01343307 0.02581258 0.03585944
0.01346779 0.02581159 0.03590291
0.01349616 0.02580958 0.03594942
0.01353087 0.02580859 0.03599288
0.01356556 0.02580759 0.03603635
0.01360656 0.02580761 0.03607677
0.01364757 0.02580762 0.03611720
0.01369491 0.02580864 0.03615458
0.01373592 0.02580865 0.03619500
0.01377693 0.02580867 0.03623543
0.01383694 0.02581170 0.03626677
0.01389059 0.02581373 0.03630115
0.01393795 0.02581475 0.03633856
-0.00793964 0.02584403 0.01390608
-0.00788170 0.02584708 0.01393519
-0.00782935 0.02584912 0.01396812
-0.00778261 0.02585015 0.01400489
-0.00773583 0.02585117 0.01404164
-0.00769468 0.02585118 0.01408222
-0.00764792 0.02585221 0.01411898
-0.00761235 0.02585121 0.01416337
-0.00757679 0.02585021 0.01420775
-0.00753562 0.02585022 0.01424833
-0.00750007 0.02584922 0.01429270
-0.00746451 0.02584822 0.01433708
-0.00742896 0.02584722 0.01438145
-0.00739342 0.02584622 0.01442583
-0.00735787 0.02584522 0.01447019
-0.00732794 0.02584321 0.01451835
-0.00729239 0.02584221 0.01456270
-0.00725685 0.02584121 0.01460706
-0.00722133 0.02584022 0.01465142
-0.00718017 0.02584023 0.01469198
-0.00713903 0.02584024 0.01473253
-0.00710911 0.02583823 0.01478067
-0.00704929 0.02583421 0.01487691
-0.00702502 0.02583119 0.01492880
-0.00700074 0.02582816 0.01498069
-0.00695041 0.02581506 0.01515136
-0.00695986 0.02580598 0.01522581
-0.00693946 0.02579491 0.01534822
-0.00690222 0.02578686 0.01545928
-0.00687237 0.02578486 0.01550727
-0.00684816 0.02578185 0.01555900
-0.00682218 0.02577179 0.01567744
-0.00678675 0.02577080 0.01572166
-0.00675131 0.02576981 0.01576586
-0.00673273 0.02576579 0.01582129
-0.00670855 0.02576278 0.01587296
-0.00666580 0.02575576 0.01598001
-0.00663601 0.02575376 0.01602792
-0.00660059 0.02575277 0.01607208
-0.00656520 0.02575178 0.01611625
0.01293974 0.02573482 0.03555485
0.01299332 0.02573684 0.03558915
0.01305321 0.02573987 0.03562040
0.01311940 0.02574390 0.03564863
0.01317932 0.02574693 0.03567990
0.01325184 0.02575197 0.03570508
0.01329286 0.02575198 0.03574551
0.01333387 0.02575200 0.03578594
0.01340014 0.02575603 0.03581419
0.01344748 0.02575705 0.03585158
0.01348217 0.02575606 0.03589505
0.01350424 0.02575306 0.03594460
0.01353264 0.02575106 0.03599110
0.01357365 0.02575107 0.03603153
0.01361465 0.02575108 0.03607196
0.01364934 0.02575009 0.03611542
0.01369035 0.02575010 0.03615584
0.01373136 0.02575012 0.03619626
0.01377237 0.02575013 0.03623669
0.01382604 0.02575215 0.03627105
0.01387338 0.02575317 0.03630846
-0.00794904 0.02578428 0.01391193
-0.00789110 0.02578732 0.01394104
-0.00783877 0.02578936 0.01397397
-0.00779203 0.02579038 0.01401073
-0.00774525 0.02579141 0.01404748
-0.00769851 0.02579243 0.01408425
-0.00765733 0.02579244 0.01412482
-0.00761618 0.02579245 0.01416539
-0.00758061 0.02579146 0.01420977
-0.00753945 0.02579147 0.01425035
-0.00750390 0.02579047 0.01429472
-0.00746834 0.02578947 0.01433910
-0.00743279 0.02578848 0.01438347
-0.00739725 0.02578748 0.01442783
-0.00736170 0.02578648 0.01447220
-0.00732616 0.02578548 0.01451657
-0.00729062 0.02578449 0.01456092
-0.00725508 0.02578349 0.01460528
-0.00721392 0.02578350 0.01464584
-0.00717278 0.02578352 0.01468640
-0.00713725 0.02578252 0.01473075
-0.00710171 0.02578152 0.01477510
-0.00704190 0.02577751 0.01487134
-0.00701761 0.02577449 0.01492324
-0.00698210 0.02577349 0.01496757
-0.00697468 0.02576745 0.01503078
-0.00694302 0.02575840 0.01514581
-0.00694686 0.02575035 0.01521649
-0.00691523 0.02574130 0.01533139
-0.00690784 0.02573527 0.01539446
-0.00688921 0.02573126 0.01544997
-0.00682391 0.02572827 0.01554221
-0.00681093 0.02572325 0.01560146
-0.00680918 0.02571622 0.01566816
-0.00674392 0.02571323 0.01576033
-0.00671411 0.02571123 0.01580828
-0.00668430 0.02570924 0.01585622
-0.00667135 0.02570422 0.01591536
-0.00664717 0.02570122 0.01596703
-0.00661738 0.02569923 0.01601494
-0.00657634 0.02569924 0.01605538
0.01297298 0.02568234 0.03553780
0.01302026 0.02568335 0.03557517
0.01307386 0.02568537 0.03560948
0.01312748 0.02568739 0.03564379
0.01319368 0.02569142 0.03567202
0.01327884 0.02569846 0.03569111
0.01331356 0.02569746 0.03573459
0.01335458 0.02569748 0.03577502
0.01342085 0.02570151 0.03580327
0.01345555 0.02570051 0.03584676
0.01349026 0.02569952 0.03589023
0.01351865 0.02569753 0.03593674
0.01354703 0.02569553 0.03598326
0.01358174 0.02569454 0.03602672
0.01361643 0.02569355 0.03607018
0.01365112 0.02569256 0.03611364
0.01369213 0.02569257 0.03615406
0.01372682 0.02569158 0.03619751
0.01376782 0.02569159 0.03623794
0.01380883 0.02569161 0.03627836
0.01385617 0.02569262 0.03631575
0.01390351 0.02569364 0.03635315
0.01395719 0.02569566 0.03638753
-0.00836058 0.02567418 0.01398686
-0.00796403 0.02572353 0.01392160
-0.00791170 0.02572556 0.01395452
-0.00785376 0.02572859 0.01398364
-0.00780143 0.02573063 0.01401658
-0.00774908 0.02573266 0.01404952
-0.00770792 0.02573267 0.01409009
-0.00766115 0.02573369 0.01412684
-0.00761999 0.02573370 0.01416741
-0.00758444 0.02573271 0.01421180
-0.00754328 0.02573272 0.01425237
-0.00750773 0.02573172 0.01429674
-0.00747217 0.02573073 0.01434112
-0.00743662 0.02572973 0.01438548
-0.00740106 0.02572874 0.01442984
-0.00736554 0.02572774 0.01447422
-0.00732438 0.02572775 0.01451478
-0.00729445 0.02572575 0.01456293
-0.00724769 0.02572677 0.01459970
-0.00721215 0.02572578 0.01464405
-0.00717099 0.02572579 0.01468461
-0.00712985 0.02572580 0.01472517
-0.00709432 0.02572481 0.01476952
-0.00703450 0.02572080 0.01486578
-0.00700460 0.02571880 0.01491389
-0.00697470 0.02571680 0.01496200
-0.00695606 0.02571278 0.01501767
-0.00694865 0.02570675 0.01508086
-0.00691137 0.02569872 0.01519209
-0.00689098 0.02568768 0.01531456
-0.00686674 0.02568468 0.01536635
-0.00686498 0.02567766 0.01543317
-0.00681090 0.02567266 0.01553292
-0.00679231 0.02566865 0.01558842
-0.00679618 0.02566064 0.01565889
-0.00673653 0.02565665 0.01575481
-0.00670671 0.02565466 0.01580276
-0.00667691 0.02565266 0.01585070
-0.00665835 0.02564866 0.01590612
-0.00663416 0.02564567 0.01595777
-0.00660437 0.02564368 0.01600569
-0.00655772 0.02564469 0.01604240
-0.00652792 0.02564270 0.01609031
0.01313554 0.02563087 0.03563897
0.01323330 0.02563990 0.03565195
0.01329955 0.02564392 0.03568018
0.01333426 0.02564293 0.03572368
0.01336898 0.02564194 0.03576715
0.01342893 0.02564496 0.03579845
0.01346365 0.02564397 0.03584193
0.01350467 0.02564398 0.03588236
0.01353306 0.02564199 0.03592888
0.01356144 0.02564000 0.03597539
0.01358981 0.02563801 0.03602191
0.01361820 0.02563602 0.03606839
0.01365289 0.02563503 0.03611186
0.01369390 0.02563504 0.03615228
0.01372226 0.02563305 0.03619876
0.01376328 0.02563307 0.03623918
0.01380429 0.02563308 0.03627960
0.01385161 0.02563409 0.03631701
0.01388630 0.02563310 0.03636045
0.01393363 0.02563412 0.03639784
0.01397464 0.02563413 0.03643827
-0.00838320 0.02561955 0.01393315
-0.00834768 0.02561856 0.01397745
-0.00792669 0.02566482 0.01396418
-0.00787437 0.02566684 0.01399712
-0.00781643 0.02566987 0.01402624
-0.00776409 0.02567190 0.01405917
-0.00771734 0.02567292 0.01409592
-0.00767058 0.02567394 0.01413268
-0.00762942 0.02567395 0.01417325
-0.00759387 0.02567296 0.01421763
-0.00755271 0.02567297 0.01425820
-0.00751716 0.02567197 0.01430257
-0.00748160 0.02567098 0.01434693
-0.00744607 0.02566999 0.01439130
-0.00741051 0.02566899 0.01443566
-0.00736937 0.02566901 0.01447622
-0.00733382 0.02566802 0.01452059
-0.00729267 0.02566803 0.01456115
-0.00725152 0.02566804 0.01460171
-0.00721037 0.02566805 0.01464227
-0.00716922 0.02566807 0.01468283
-0.00712807 0.02566808 0.01472339
-0.00709255 0.02566709 0.01476774
-0.00705701 0.02566609 0.01481208
-0.00702710 0.02566409 0.01486021
-0.00696731 0.02566010 0.01495644
-0.00693741 0.02565810 0.01500455
-0.00693563 0.02565107 0.01507153
-0.00689273 0.02564407 0.01517899
-0.00688535 0.02563805 0.01524214
-0.00687796 0.02563204 0.01530524
-0.00683510 0.02562504 0.01541258
-0.00682773 0.02561904 0.01547562
-0.00680351 0.02561604 0.01552738
-0.00677194 0.02560705 0.01564211
-0.00675334 0.02560306 0.01569758
-0.00672916 0.02560006 0.01574929
-0.00666952 0.02559609 0.01584518
-0.00665095 0.02559209 0.01590060
-0.00663239 0.02558810 0.01595599
-0.00660822 0.02558512 0.01600764
0.01326661 0.02558736 0.03563492
0.01331395 0.02558837 0.03567230
0.01334865 0.02558738 0.03571580
0.01338337 0.02558640 0.03575928
0.01344334 0.02558941 0.03579058
0.01347174 0.02558742 0.03583711
0.01351276 0.02558743 0.03587755
0.01354115 0.02558545 0.03592407
0.01357585 0.02558446 0.03596754
0.01359792 0.02558147 0.03601708
0.01362629 0.02557949 0.03606358
0.01365465 0.02557750 0.03611008
0.01369566 0.02557751 0.03615050
0.01372403 0.02557553 0.03619698
0.01376504 0.02557554 0.03623741
0.01380605 0.02557555 0.03627783
0.01384705 0.02557557 0.03631825
0.01388174 0.02557458 0.03636169
0.01392907 0.02557559 0.03639909
0.01396376 0.02557460 0.03644253
0.01399843 0.02557362 0.03648597
-0.00837030 0.02556393 0.01392374
-0.00832364 0.02556494 0.01396043
-0.00788377 0.02560711 0.01400296
-0.00783703 0.02560813 0.01403970
-0.00779030 0.02560914 0.01407645
-0.00774354 0.02561016 0.01411320
-0.00768560 0.02561319 0.01414233
-0.00764444 0.02561320 0.01418289
-0.00760329 0.02561321 0.01422346
-0.00756213 0.02561323 0.01426402
-0.00752659 0.02561224 0.01430839
-0.00749104 0.02561124 0.01435276
-0.00745550 0.02561025 0.01439711
-0.00741434 0.02561026 0.01443768
-0.00737320 0.02561028 0.01447824
-0.00733204 0.02561029 0.01451880
-0.00729652 0.02560930 0.01456316
-0.00724974 0.02561032 0.01459992
-0.00720859 0.02561033 0.01464048
-0.00716744 0.02561034 0.01468104
-0.00712068 0.02561136 0.01471782
-0.00708514 0.02561037 0.01476216
-0.00704962 0.02560938 0.01480652
-0.00702533 0.02560638 0.01485842
-0.00695990 0.02560339 0.01495087
-0.00693001 0.02560140 0.01499898
-0.00691698 0.02559639 0.01505842
-0.00687972 0.02558840 0.01516967
-0.00686108 0.02558440 0.01522528
-0.00686495 0.02557639 0.01529593
-0.00681086 0.02557141 0.01539577
-0.00679787 0.02556642 0.01545506
-0.00676240 0.02556543 0.01549932
-0.00676066 0.02555844 0.01556609
-0.00672348 0.02555046 0.01567706
-0.00672175 0.02554348 0.01574375
-0.00666213 0.02553951 0.01583966
-0.00663795 0.02553652 0.01589134
-0.00661938 0.02553254 0.01594674
-0.00660083 0.02552856 0.01600213
-0.00912450 0.02354259 0.03198456
-0.00903267 0.02354521 0.03205097
0.01332203 0.02553182 0.03566748
0.01335675 0.02553083 0.03571097
0.01339145 0.02552985 0.03575446
0.01345143 0.02553285 0.03578576
0.01347983 0.02553087 0.03583229
0.01352085 0.02553089 0.03587273
0.01354924 0.02552890 0.03591924
0.01358394 0.02552791 0.03596273
0.01360601 0.02552493 0.03601227
0.01362805 0.02552195 0.03606180
0.01365642 0.02551997 0.03610831
0.01368479 0.02551799 0.03615478
0.01371948 0.02551700 0.03619824
0.01376049 0.02551701 0.03623866
0.01379517 0.02551603 0.03628209
0.01384251 0.02551704 0.03631949
0.01387718 0.02551606 0.03636293
0.01391819 0.02551607 0.03640335
0.01395287 0.02551509 0.03644679
0.01398753 0.02551410 0.03649024
0.01402853 0.02551411 0.03653065
0.01405688 0.02551213 0.03657711
0.01452568 0.02533624 0.03867706
-0.00836852 0.02550630 0.01392196
-0.00832187 0.02550731 0.01395865
-0.00827521 0.02550832 0.01399533
-0.00784643 0.02554840 0.01404554
-0.00779970 0.02554942 0.01408229
-0.00775295 0.02555043 0.01411904
-0.00770062 0.02555245 0.01415197
-0.00765386 0.02555346 0.01418872
-0.00761272 0.02555348 0.01422929
-0.00757156 0.02555349 0.01426985
-0.00753042 0.02555350 0.01431041
-0.00749487 0.02555251 0.01435477
-0.00745933 0.02555153 0.01439914
-0.00741819 0.02555154 0.01443970
-0.00737141 0.02555255 0.01447646
-0.00733027 0.02555256 0.01451702
-0.00728911 0.02555258 0.01455758
-0.00724797 0.02555259 0.01459813
-0.00720121 0.02555360 0.01463491
-0.00715443 0.02555462 0.01467168
-0.00711329 0.02555463 0.01471224
-0.00707775 0.02555364 0.01475659
-0.00704221 0.02555265 0.01480094
-0.00701794 0.02554966 0.01485286
-0.00698803 0.02554767 0.01490097
-0.00694689 0.02554769 0.01494153
-0.00691698 0.02554569 0.01498964
-0.00689834 0.02554170 0.01504530
-0.00688532 0.02553671 0.01510472
-0.00686669 0.02553272 0.01516034
-0.00682944 0.02552474 0.01527155
-0.00681083 0.02552075 0.01532713
-0.00679220 0.02551677 0.01538269
-0.00449662 0.02500781 0.02239694
-0.00447865 0.02500397 0.02245054
-0.00445510 0.02500109 0.02250069
-0.00440353 0.02500303 0.02253356
0.01334906 0.02547825 0.03565350
0.01337746 0.02547627 0.03570004
0.01341850 0.02547628 0.03574048
0.01347215 0.02547829 0.03577483
0.01350056 0.02547631 0.03582137
0.01353526 0.02547533 0.03586486
0.01359835 0.02547236 0.03595486
0.01362042 0.02546939 0.03600441
0.01364248 0.02546641 0.03605396
0.01365820 0.02546244 0.03610653
0.01368657 0.02546046 0.03615300
0.01372126 0.02545948 0.03619646
0.01375593 0.02545850 0.03623990
0.01379694 0.02545851 0.03628032
0.01383163 0.02545753 0.03632376
0.01387264 0.02545754 0.03636418
0.01391363 0.02545755 0.03640459
0.01395464 0.02545757 0.03644501
0.01398930 0.02545658 0.03648846
0.01402397 0.02545560 0.03653189
0.01405232 0.02545362 0.03657834
-0.00841896 0.02544666 0.01388732
-0.00837231 0.02544767 0.01392400
-0.00832567 0.02544868 0.01396067
-0.00827344 0.02545068 0.01399355
-0.00821008 0.02545468 0.01401883
-0.00780910 0.02548970 0.01408812
-0.00776237 0.02549071 0.01412486
-0.00770444 0.02549372 0.01415400
-0.00765769 0.02549474 0.01419074
-0.00761653 0.02549475 0.01423130
-0.00757539 0.02549476 0.01427187
-0.00753424 0.02549477 0.01431243
-0.00749870 0.02549379 0.01435680
-0.00745755 0.02549380 0.01439735
-0.00741640 0.02549381 0.01443791
-0.00736964 0.02549483 0.01447467
-0.00732850 0.02549484 0.01451523
-0.00728734 0.02549485 0.01455579
-0.00724058 0.02549587 0.01459256
-0.00719382 0.02549688 0.01462933
-0.00714704 0.02549789 0.01466610
-0.00710589 0.02549791 0.01470666
-0.00706473 0.02549792 0.01474722
-0.00703482 0.02549593 0.01479537
-0.00701053 0.02549294 0.01484729
-0.00698063 0.02549096 0.01489541
-0.00693949 0.02549097 0.01493596
-0.00688532 0.02548600 0.01503596
-0.00686669 0.02548201 0.01509161
-0.00685368 0.02547703 0.01515102
-0.00680517 0.02547107 0.01525470
-0.00677530 0.02546908 0.01530275
-0.00676233 0.02546410 0.01536210
-0.00674371 0.02546012 0.01541767
-0.00669137 0.02546213 0.01545066
-0.00448251 0.02494639 0.02245224
-0.00440739 0.02494545 0.02253527
0.01337607 0.02542467 0.03563952
0.01341081 0.02542369 0.03568301
0.01346448 0.02542569 0.03571737
0.01351184 0.02542670 0.03575478
0.01352128 0.02542173 0.03581046
0.01354335 0.02541876 0.03586004
0.01360644 0.02541581 0.03595004
0.01362851 0.02541284 0.03599960
0.01363792 0.02540788 0.03605521
0.01365365 0.02540392 0.03610778
0.01368202 0.02540194 0.03615426
0.01371039 0.02539997 0.03620074
0.01375139 0.02539998 0.03624115
0.01379240 0.02540000 0.03628157
0.01383339 0.02540001 0.03632198
0.01386806 0.02539903 0.03636543
0.01390907 0.02539904 0.03640585
0.01394375 0.02539806 0.03644928
0.01398474 0.02539807 0.03648970
0.01401941 0.02539709 0.03653313
0.01404776 0.02539512 0.03657956
0.01406975 0.02539215 0.03662902
-0.00842273 0.02538803 0.01388934
-0.00837611 0.02538904 0.01392603
-0.00832945 0.02539005 0.01396271
-0.00827722 0.02539205 0.01399558
-0.00821386 0.02539605 0.01402085
-0.00782411 0.02542899 0.01409777
-0.00771385 0.02543401 0.01415984
-0.00766152 0.02543601 0.01419277
-0.00762036 0.02543603 0.01423334
-0.00757922 0.02543604 0.01427390
-0.00753807 0.02543605 0.01431445
-0.00750253 0.02543507 0.01435881
-0.00745578 0.02543608 0.01439557
-0.00741462 0.02543609 0.01443613
-0.00736786 0.02543710 0.01447289
-0.00732110 0.02543811 0.01450965
-0.00727995 0.02543813 0.01455022
-0.00723319 0.02543914 0.01458699
-0.00718641 0.02544015 0.01462375
-0.00713964 0.02544116 0.01466052
-0.00709288 0.02544217 0.01469731
-0.00705172 0.02544218 0.01473787
-0.00701618 0.02544120 0.01478222
-0.00699751 0.02543722 0.01483793
-0.00697324 0.02543424 0.01488984
-0.00693209 0.02543425 0.01493040
-0.00687230 0.02543029 0.01502662
-0.00685365 0.02542631 0.01508228
-0.00684065 0.02542134 0.01514169
-0.00679214 0.02541538 0.01524538
-0.00675666 0.02541440 0.01528968
-0.00673242 0.02541142 0.01534150
-0.00669694 0.02541044 0.01538578
-0.00664458 0.02541244 0.01541879
0.01351994 0.02537012 0.03574995
0.01352306 0.02536417 0.03580868
0.01354513 0.02536120 0.03585826
0.01360190 0.02535726 0.03595131
0.01361763 0.02535331 0.03600390
0.01362073 0.02534737 0.03606254
0.01364279 0.02534441 0.03611206
0.01370582 0.02534145 0.03620200
0.01374683 0.02534147 0.03624241
0.01378150 0.02534049 0.03628585
0.01382251 0.02534050 0.03632627
0.01385719 0.02533953 0.03636970
0.01389818 0.02533954 0.03641012
0.01392654 0.02533757 0.03645656
0.01396753 0.02533758 0.03649697
0.01400852 0.02533760 0.03653738
0.01403686 0.02533563 0.03658382
0.01405886 0.02533267 0.03663328
0.01409352 0.02533169 0.03667668
-0.00843209 0.02532842 0.01389518
-0.00838545 0.02532943 0.01393186
-0.00833881 0.02533043 0.01396854
-0.00828660 0.02533243 0.01400142
-0.00822324 0.02533641 0.01402668
-0.00817101 0.02533842 0.01405957
-0.00766534 0.02537730 0.01419479
-0.00762418 0.02537731 0.01423535
-0.00758304 0.02537732 0.01427592
-0.00754189 0.02537734 0.01431647
-0.00750074 0.02537735 0.01435703
-0.00745399 0.02537836 0.01439378
-0.00741285 0.02537837 0.01443435
-0.00736608 0.02537938 0.01447110
-0.00731933 0.02538039 0.01450787
-0.00727817 0.02538040 0.01454843
-0.00723141 0.02538141 0.01458520
-0.00717902 0.02538341 0.01461817
-0.00713226 0.02538443 0.01465495
-0.00708547 0.02538544 0.01469172
-0.00704432 0.02538545 0.01473229
-0.00700316 0.02538546 0.01477286
-0.00698450 0.02538149 0.01482858
-0.00696021 0.02537851 0.01488049
-0.00691907 0.02537852 0.01492105
-0.00689478 0.02537555 0.01497295
-0.00684063 0.02537060 0.01507294
-0.00682200 0.02536663 0.01512859
-0.00680900 0.02536166 0.01518799
-0.00678475 0.02535870 0.01523983
-0.00674364 0.02535871 0.01528037
-0.00431086 0.02482747 0.02266833
0.01353115 0.02530760 0.03580385
0.01358470 0.02529674 0.03595864
0.01358782 0.02529081 0.03601730
0.01360986 0.02528786 0.03606682
0.01366660 0.02528393 0.03615981
0.01370127 0.02528295 0.03620324
0.01373595 0.02528197 0.03624669
0.01377696 0.02528199 0.03628711
0.01381163 0.02528101 0.03633054
0.01384631 0.02528004 0.03637396
0.01388732 0.02528005 0.03641437
0.01391564 0.02527808 0.03646082
0.01394399 0.02527612 0.03650727
0.01399131 0.02527712 0.03654466
0.01402597 0.02527614 0.03658808
0.01405430 0.02527418 0.03663450
0.01408894 0.02527320 0.03667792
-0.00848807 0.02526782 0.01386436
-0.00843588 0.02526981 0.01389721
-0.00838925 0.02527081 0.01393390
-0.00834817 0.02527083 0.01397438
-0.00830153 0.02527183 0.01401106
-0.00824374 0.02527482 0.01404013
-0.00818594 0.02527780 0.01406920
-0.00812814 0.02528079 0.01409829
-0.00766356 0.02531957 0.01419301
-0.00762241 0.02531959 0.01423357
-0.00758126 0.02531960 0.01427413
-0.00754012 0.02531961 0.01431469
-0.00749336 0.02532062 0.01435144
-0.00744660 0.02532163 0.01438820
-0.00740546 0.02532164 0.01442876
-0.00735310 0.02532364 0.01446173
-0.00731194 0.02532366 0.01450229
-0.00726517 0.02532466 0.01453905
-0.00721841 0.02532567 0.01457582
-0.00717163 0.02532668 0.01461260
-0.00711924 0.02532868 0.01464558
-0.00707808 0.02532869 0.01468615
-0.00703129 0.02532970 0.01472292
-0.00699575 0.02532872 0.01476729
-0.00696585 0.02532674 0.01481543
-0.00693031 0.02532576 0.01485979
-0.00689478 0.02532478 0.01490413
-0.00687614 0.02532081 0.01495983
-0.00685187 0.02531785 0.01501172
-0.00679772 0.02531291 0.01511171
-0.00678472 0.02530795 0.01517112
-0.00676610 0.02530399 0.01522674
0.01352981 0.02525595 0.03574333
0.01352660 0.02524904 0.03580512
0.01354235 0.02524510 0.03585774
0.01356120 0.02523525 0.03596903
0.01357694 0.02523131 0.03602160
0.01363370 0.02522738 0.03611457
0.01366837 0.02522641 0.03615803
0.01369672 0.02522445 0.03620449
0.01373772 0.02522446 0.03624491
0.01377240 0.02522349 0.03628834
0.01380709 0.02522251 0.03633177
0.01383543 0.02522055 0.03637823
0.01387642 0.02522056 0.03641864
0.01390477 0.02521860 0.03646509
0.01393311 0.02521664 0.03651153
0.01398042 0.02521764 0.03654892
0.01401508 0.02521667 0.03659233
0.01404974 0.02521569 0.03663574
0.01408438 0.02521472 0.03667916
-0.00856072 0.02520426 0.01384497
-0.00849742 0.02520822 0.01387019
-0.00843966 0.02521120 0.01389924
-0.00839859 0.02521121 0.01393973
-0.00835195 0.02521221 0.01397640
-0.00831087 0.02521223 0.01401689
-0.00825867 0.02521422 0.01404977
-0.00820646 0.02521621 0.01408266
-0.00814866 0.02521919 0.01411173
-0.00809084 0.02522217 0.01414082
-0.00762624 0.02526088 0.01423559
-0.00757949 0.02526188 0.01427235
-0.00753275 0.02526288 0.01430910
-0.00749159 0.02526290 0.01434966
-0.00744483 0.02526390 0.01438641
-0.00739807 0.02526491 0.01442318
-0.00735131 0.02526591 0.01445994
-0.00730455 0.02526692 0.01449670
-0.00725777 0.02526792 0.01453347
-0.00720540 0.02526992 0.01456644
-0.00715862 0.02527093 0.01460322
-0.00711183 0.02527193 0.01464000
-0.00706506 0.02527294 0.01467678
-0.00702390 0.02527295 0.01471736
-0.00698273 0.02527296 0.01475792
-0.00694719 0.02527199 0.01480228
-0.00691167 0.02527100 0.01484665
-0.00687051 0.02527102 0.01488721
-0.00684622 0.02526805 0.01493913
-0.00682758 0.02526410 0.01499481
-0.00679031 0.02525619 0.01510615
-0.00677168 0.02525224 0.01516179
0.00069477 0.02322337 0.04165153
0.01353790 0.02519936 0.03573851
0.01353469 0.02519247 0.03580029
0.01354413 0.02518754 0.03585596
0.01353770 0.02517377 0.03597939
0.01356609 0.02517181 0.03602589
0.01362912 0.02516888 0.03611583
0.01365750 0.02516692 0.03616231
0.01369217 0.02516595 0.03620575
0.01372686 0.02516498 0.03624918
0.01376154 0.02516400 0.03629262
0.01379621 0.02516303 0.03633604
0.01382455 0.02516107 0.03638250
0.01386555 0.02516109 0.03642290
0.01390021 0.02516012 0.03646633
0.01392855 0.02515816 0.03651276
0.01396953 0.02515817 0.03655316
0.01400419 0.02515720 0.03659658
0.01404516 0.02515722 0.03663698
0.01407982 0.02515624 0.03668039
0.01412080 0.02515626 0.03672079
-0.00871877 0.02513283 0.01381561
-0.00858672 0.02514173 0.01386224
-0.00851232 0.02514765 0.01387984
-0.00844902 0.02515161 0.01390509
-0.00840239 0.02515261 0.01394176
-0.00835574 0.02515361 0.01397844
-0.00830910 0.02515461 0.01401511
-0.00826803 0.02515462 0.01405559
-0.00821581 0.02515661 0.01408847
-0.00816360 0.02515859 0.01412136
-0.00811137 0.02516058 0.01415425
-0.00805913 0.02516257 0.01418713
-0.00762445 0.02520316 0.01423381
-0.00757770 0.02520416 0.01427056
-0.00753656 0.02520417 0.01431112
-0.00748982 0.02520518 0.01434787
-0.00744306 0.02520618 0.01438463
-0.00739630 0.02520718 0.01442139
-0.00734954 0.02520819 0.01445815
-0.00730276 0.02520919 0.01449491
-0.00725600 0.02521019 0.01453169
-0.00720361 0.02521219 0.01456466
-0.00715685 0.02521319 0.01460144
-0.00711006 0.02521419 0.01463821
-0.00706328 0.02521520 0.01467499
-0.00701649 0.02521620 0.01471177
-0.00697532 0.02521621 0.01475234
-0.00693980 0.02521523 0.01479672
-0.00689863 0.02521525 0.01483729
-0.00686309 0.02521427 0.01488164
-0.00682756 0.02521329 0.01492600
-0.00680892 0.02520934 0.01498169
-0.00681280 0.02520144 0.01505248
0.01352382 0.02513293 0.03580461
0.01351111 0.02511819 0.03593111
0.01355523 0.02511232 0.03603018
0.01358359 0.02511036 0.03607666
0.01361828 0.02510940 0.03612012
0.01364031 0.02510646 0.03616961
0.01366867 0.02510450 0.03621608
0.01370966 0.02510452 0.03625648
0.01374434 0.02510355 0.03629991
0.01377901 0.02510258 0.03634334
0.01381367 0.02510161 0.03638676
0.01384835 0.02510064 0.03643019
0.01388933 0.02510065 0.03647059
0.01392399 0.02509968 0.03651401
0.01396497 0.02509969 0.03655440
0.01399963 0.02509873 0.03659783
0.01403429 0.02509776 0.03664122
0.01407526 0.02509777 0.03668161
0.01411624 0.02509778 0.03672201
-0.00887667 0.02506148 0.01378629
-0.00873365 0.02507231 0.01382527
-0.00865376 0.02507920 0.01383905
-0.00859605 0.02508217 0.01386807
-0.00853278 0.02508611 0.01389331
-0.00846392 0.02509104 0.01391474
-0.00841174 0.02509303 0.01394760
-0.00835954 0.02509500 0.01398046
-0.00831847 0.02509502 0.01402095
-0.00827183 0.02509602 0.01405762
-0.00822517 0.02509701 0.01409430
-0.00817853 0.02509801 0.01413099
-0.00813188 0.02509901 0.01416767
-0.00807966 0.02510099 0.01420057
-0.00762267 0.02514544 0.01423202
-0.00758153 0.02514545 0.01427258
-0.00753479 0.02514645 0.01430933
-0.00749363 0.02514647 0.01434989
-0.00744689 0.02514747 0.01438665
-0.00739452 0.02514945 0.01441961
-0.00734776 0.02515046 0.01445637
-0.00730099 0.02515146 0.01449313
-0.00725423 0.02515246 0.01452990
-0.00719623 0.02515544 0.01455908
-0.00714944 0.02515644 0.01459585
-0.00710267 0.02515744 0.01463263
-0.00705588 0.02515844 0.01466941
-0.00700910 0.02515944 0.01470620
-0.00696793 0.02515946 0.01474678
-0.00693238 0.02515848 0.01479114
-0.00689122 0.02515849 0.01483171
-0.00685568 0.02515752 0.01487608
-0.00682016 0.02515654 0.01492043
-0.00677899 0.02515656 0.01496100
-0.00659226 0.02506709 0.01599163
0.01350336 0.02505282 0.03599406
0.01353803 0.02505185 0.03603751
0.01356642 0.02504991 0.03608398
0.01360109 0.02504894 0.03612743
0.01361682 0.02504503 0.03617996
0.01365151 0.02504406 0.03622338
0.01369248 0.02504407 0.03626378
0.01373348 0.02504409 0.03630418
0.01376814 0.02504312 0.03634761
0.01380280 0.02504215 0.03639103
0.01384379 0.02504216 0.03643143
0.01387843 0.02504120 0.03647485
0.01391311 0.02504023 0.03651826
0.01395409 0.02504024 0.03655865
0.01399507 0.02504025 0.03659905
0.01402973 0.02503929 0.03664246
0.01407070 0.02503930 0.03668286
0.01411168 0.02503931 0.03672326
0.01415266 0.02503933 0.03676365
-0.00891039 0.02500490 0.01374027
-0.00886382 0.02500589 0.01377689
-0.00880617 0.02500884 0.01380590
-0.00873187 0.02501474 0.01382349
-0.00866863 0.02501867 0.01384870
-0.00861093 0.02502163 0.01387773
-0.00855322 0.02502459 0.01390676
-0.00848995 0.02502853 0.01393200
-0.00842664 0.02503247 0.01395724
-0.00837445 0.02503444 0.01399010
-0.00832783 0.02503544 0.01402678
-0.00828676 0.02503545 0.01406726
-0.00824010 0.02503645 0.01410393
-0.00819348 0.02503744 0.01414062
-0.00814682 0.02503844 0.01417730
-0.00810018 0.02503943 0.01421398
-0.00757976 0.02508773 0.01427079
-0.00753860 0.02508775 0.01431135
-0.00749186 0.02508874 0.01434810
-0.00744511 0.02508974 0.01438486
-0.00739273 0.02509173 0.01441782
-0.00734599 0.02509273 0.01445458
-0.00729360 0.02509471 0.01448755
-0.00724684 0.02509571 0.01452432
-0.00719444 0.02509770 0.01455729
-0.00714205 0.02509968 0.01459028
-0.00710090 0.02509970 0.01463085
-0.00704849 0.02510168 0.01466384
-0.00700168 0.02510268 0.01470062
-0.00696053 0.02510270 0.01474120
-0.00691935 0.02510271 0.01478177
-0.00687818 0.02510272 0.01482235
-0.00683703 0.02510273 0.01486292
-0.00659049 0.02500954 0.01598985
0.01347987 0.02499139 0.03600442
0.01351456 0.02499043 0.03604787
0.01354924 0.02498946 0.03609131
0.01358391 0.02498849 0.03613474
0.01360597 0.02498557 0.03618424
0.01364063 0.02498461 0.03622766
0.01368161 0.02498462 0.03626806
0.01372260 0.02498463 0.03630846
0.01376359 0.02498464 0.03634886
0.01379824 0.02498368 0.03639228
0.01383923 0.02498369 0.03643268
0.01388021 0.02498370 0.03647307
0.01391488 0.02498274 0.03651648
0.01395586 0.02498275 0.03655688
0.01399051 0.02498179 0.03660029
0.01402517 0.02498082 0.03664370
0.01406614 0.02498083 0.03668409
0.01410712 0.02498084 0.03672448
0.01414810 0.02498086 0.03676488
-0.00891416 0.02494637 0.01374230
-0.00885652 0.02494931 0.01377130
-0.00880440 0.02495128 0.01380412
-0.00874673 0.02495423 0.01383314
-0.00868352 0.02495816 0.01385835
-0.00862582 0.02496111 0.01388738
-0.00856811 0.02496406 0.01391641
-0.00851595 0.02496603 0.01394926
-0.00845267 0.02496996 0.01397450
-0.00839493 0.02497291 0.01400355
-0.00834830 0.02497391 0.01404022
-0.00830168 0.02497490 0.01407689
-0.00825505 0.02497589 0.01411357
-0.00820284 0.02497786 0.01414645
-0.00815620 0.02497886 0.01418312
-0.00754803 0.02502806 0.01431717
-0.00750129 0.02502906 0.01435392
-0.00745454 0.02503005 0.01439068
-0.00740218 0.02503203 0.01442364
-0.00734982 0.02503401 0.01445659
-0.00730306 0.02503501 0.01449336
-0.00725067 0.02503699 0.01452633
-0.00719267 0.02503996 0.01455551
-0.00714588 0.02504096 0.01459228
-0.00709911 0.02504195 0.01462907
-0.00705232 0.02504295 0.01466584
-0.00699428 0.02504592 0.01469504
-0.00695312 0.02504593 0.01473562
-0.00690633 0.02504693 0.01477242
-0.00686516 0.02504694 0.01481299
-0.00682960 0.02504597 0.01485735
-0.00658311 0.02495296 0.01598434
-0.00654207 0.02495297 0.01602478
-0.00650665 0.02495200 0.01606895
0.01346271 0.02493095 0.03601175
0.01349740 0.02492999 0.03605520
0.01353207 0.02492903 0.03609862
0.01357305 0.02492904 0.03613902
0.01360141 0.02492710 0.03618548
0.01363608 0.02492613 0.03622892
0.01367706 0.02492615 0.03626931
0.01371804 0.02492616 0.03630971
0.01375903 0.02492617 0.03635011
0.01379369 0.02492521 0.03639352
0.01383469 0.02492522 0.03643391
0.01387566 0.02492524 0.03647430
0.01391664 0.02492525 0.03651471
0.01395130 0.02492428 0.03655812
0.01399228 0.02492430 0.03659851
0.01402694 0.02492334 0.03664192
0.01406159 0.02492237 0.03668533
0.01410256 0.02492238 0.03672571
0.01414354 0.02492240 0.03676610
0.01418452 0.02492241 0.03680650
-0.00895341 0.02488881 0.01370008
-0.00891238 0.02488882 0.01374052
-0.00886028 0.02489079 0.01377333
-0.00880817 0.02489275 0.01380616
-0.00875606 0.02489471 0.01383898
-0.00869283 0.02489864 0.01386418
-0.00863515 0.02490158 0.01389322
-0.00857745 0.02490452 0.01392225
-0.00852528 0.02490649 0.01395509
-0.00846756 0.02490943 0.01398413
-0.00842094 0.02491043 0.01402079
-0.00836878 0.02491239 0.01405366
-0.00832216 0.02491338 0.01409033
-0.00826997 0.02491535 0.01412319
-0.00821777 0.02491732 0.01415607
-0.00816557 0.02491929 0.01418894
-0.00811335 0.02492126 0.01422182
-0.00755186 0.02496936 0.01431918
-0.00750512 0.02497036 0.01435594
-0.00745836 0.02497135 0.01439270
-0.00740601 0.02497333 0.01442565
-0.00735927 0.02497433 0.01446241
-0.00731249 0.02497532 0.01449917
-0.00726013 0.02497730 0.01453214
-0.00719650 0.02498124 0.01455752
-0.00714411 0.02498322 0.01459049
-0.00709733 0.02498421 0.01462728
-0.00705054 0.02498521 0.01466405
-0.00699250 0.02498817 0.01469325
-0.00694571 0.02498916 0.01473004
-0.00688204 0.02499311 0.01475547
-0.00683522 0.02499411 0.01479226
-0.00650488 0.02489445 0.01606718
0.01352753 0.02487055 0.03609988
0.01356851 0.02487057 0.03614028
0.01359686 0.02486863 0.03618674
0.01363786 0.02486864 0.03622714
0.01367883 0.02486865 0.03626754
0.01371981 0.02486867 0.03630793
0.01376081 0.02486868 0.03634833
0.01379547 0.02486772 0.03639174
0.01383644 0.02486773 0.03643214
0.01387744 0.02486775 0.03647253
0.01391208 0.02486678 0.03651594
0.01394676 0.02486582 0.03655936
0.01398773 0.02486584 0.03659975
0.01402238 0.02486487 0.03664315
0.01405703 0.02486391 0.03668655
0.01409800 0.02486393 0.03672694
0.01413898 0.02486394 0.03676733
0.01417996 0.02486395 0.03680772
0.01422094 0.02486397 0.03684811
-0.00896271 0.02482931 0.01370593
-0.00892168 0.02482932 0.01374637
-0.00886959 0.02483128 0.01377917
-0.00881194 0.02483422 0.01380819
-0.00876537 0.02483520 0.01384482
-0.00870770 0.02483814 0.01387384
-0.00865556 0.02484010 0.01390667
-0.00859234 0.02484402 0.01393189
-0.00853463 0.02484695 0.01396093
-0.00847691 0.02484989 0.01398997
-0.00843030 0.02485088 0.01402663
-0.00838368 0.02485187 0.01406328
-0.00833707 0.02485286 0.01409995
-0.00829601 0.02485287 0.01414042
-0.00824383 0.02485483 0.01417329
-0.00818607 0.02485777 0.01420236
-0.00812273 0.02486169 0.01422764
-0.00756688 0.02490871 0.01432881
-0.00751454 0.02491068 0.01436175
-0.00746219 0.02491266 0.01439471
-0.00741544 0.02491365 0.01443146
-0.00736308 0.02491562 0.01446442
-0.00731634 0.02491662 0.01450118
-0.00726396 0.02491859 0.01453415
-0.00720596 0.02492154 0.01456332
-0.00714795 0.02492449 0.01459251
-0.00710116 0.02492549 0.01462928
-0.00704877 0.02492746 0.01466227
-0.00698511 0.02493140 0.01468768
-0.00693268 0.02493338 0.01472067
0.01360495 0.02481211 0.03618193
0.01363961 0.02481115 0.03622536
0.01368061 0.02481116 0.03626576
0.01372159 0.02481117 0.03630615
0.01376256 0.02481119 0.03634655
0.01379724 0.02481023 0.03638996
0.01383822 0.02481024 0.03643036
0.01387919 0.02481026 0.03647075
0.01391385 0.02480930 0.03651417
0.01394852 0.02480834 0.03655758
0.01398316 0.02480738 0.03660098
0.01401782 0.02480642 0.03664438
0.01405880 0.02480643 0.03668477
0.01409978 0.02480644 0.03672517
0.01414075 0.02480646 0.03676555
0.01418173 0.02480647 0.03680594
0.01422271 0.02480648 0.03684634
0.01425734 0.02480552 0.03688973
-0.00901303 0.02476981 0.01367135
-0.00897753 0.02476885 0.01371559
-0.00893098 0.02476983 0.01375221
-0.00887336 0.02477276 0.01378121
-0.00882125 0.02477472 0.01381402
-0.00876914 0.02477668 0.01384685
-0.00871702 0.02477864 0.01387967
-0.00867045 0.02477962 0.01391631
-0.00861275 0.02478255 0.01394533
-0.00854951 0.02478645 0.01397057
-0.00848626 0.02479036 0.01399580
-0.00843965 0.02479135 0.01403245
-0.00839303 0.02479233 0.01406912
-0.00834642 0.02479332 0.01410578
-0.00830537 0.02479333 0.01414625
-0.00825875 0.02479432 0.01418290
-0.00820656 0.02479628 0.01421577
-0.00813767 0.02480116 0.01423726
-0.00807989 0.02480409 0.01426633
-0.00752957 0.02485004 0.01437137
-0.00747162 0.02485299 0.01440052
-0.00741927 0.02485496 0.01443347
-0.00737253 0.02485595 0.01447023
-0.00732577 0.02485694 0.01450699
-0.00727341 0.02485891 0.01453996
-0.00722103 0.02486087 0.01457293
-0.00716303 0.02486382 0.01460211
-0.00711063 0.02486579 0.01463509
0.00194180 0.02316363 0.03984920
0.00197487 0.02316278 0.03989004
0.00199123 0.02315934 0.03993907
0.01364139 0.02475366 0.03622358
0.01367606 0.02475270 0.03626700
0.01371704 0.02475271 0.03630739
0.01376434 0.02475370 0.03634477
0.01379901 0.02475274 0.03638818
0.01383999 0.02475275 0.03642859
0.01388097 0.02475277 0.03646898
0.01391563 0.02475181 0.03651239
0.01395029 0.02475085 0.03655580
0.01398493 0.02474989 0.03659921
0.01401326 0.02474797 0.03664563
0.01405424 0.02474798 0.03668601
0.01409520 0.02474799 0.03672640
