ply
format ascii 1.0
element vertex 1405
property float x
property float y
property float z
end_header
0.01338439 -0.00865101 0.00151305
0.01387903 -0.00847741 -0.00957570
0.01387104 -0.00847714 -0.00962556
0.01385716 -0.00847714 -0.00967629
0.01384327 -0.00847715 -0.00972702
0.01876847 -0.00876366 0.02571630
0.01878375 -0.00876218 0.02566309
0.01876949 -0.00876218 0.02561103
0.01861861 -0.00876195 0.02503813
0.01860437 -0.00876196 0.02498607
0.01859011 -0.00876196 0.02493401
0.01675662 -0.00874768 0.01712726
0.01676027 -0.00874679 0.01707543
0.01477747 -0.00875199 0.01015929
0.01476324 -0.00875200 0.01010729
0.01474297 -0.00875230 0.01005503
0.01473476 -0.00875201 0.01000330
0.01472655 -0.00875171 0.00995159
0.01472437 -0.00875113 0.00990015
0.01471014 -0.00875113 0.00984816
0.01470193 -0.00875084 0.00979645
0.01469976 -0.00875026 0.00974502
0.01466744 -0.00875115 0.00969218
0.01465924 -0.00875086 0.00964048
0.01464500 -0.00875087 0.00958849
0.01463076 -0.00875087 0.00953650
0.01461653 -0.00875088 0.00948451
0.01459627 -0.00875118 0.00943223
0.01458202 -0.00875118 0.00938024
0.01456177 -0.00875149 0.00932795
0.01454754 -0.00875149 0.00927596
0.01453933 -0.00875120 0.00922427
0.01451303 -0.00875180 0.00917167
0.01448672 -0.00875240 0.00911907
0.01447248 -0.00875240 0.00906708
0.01445824 -0.00875241 0.00901508
0.00591868 -0.00914362 0.00649696
0.00591043 -0.00914330 0.00644317
0.00589560 -0.00914331 0.00638897
0.00588733 -0.00914299 0.00633519
0.00587250 -0.00914300 0.00628100
0.00586425 -0.00914268 0.00622721
0.00586255 -0.00914204 0.00617385
0.00585429 -0.00914172 0.00612008
0.00585920 -0.00914076 0.00606715
0.00585096 -0.00914045 0.00601339
0.00584927 -0.00913981 0.00596005
0.00583443 -0.00913982 0.00590588
0.00581303 -0.00914014 0.00585127
0.00581136 -0.00913951 0.00579796
0.01337774 -0.00870544 0.00156389
0.01338774 -0.00870427 0.00151435
0.00342673 -0.00911689 -0.00465431
0.01388229 -0.00852966 -0.00957410
0.01387432 -0.00852938 -0.00962395
0.01386043 -0.00852939 -0.00967467
0.01384655 -0.00852939 -0.00972541
0.01877514 -0.00881638 0.02566407
0.01863015 -0.00881585 0.02509094
0.01860999 -0.00881615 0.02503910
0.01859573 -0.00881616 0.02498703
0.01858740 -0.00881586 0.02493476
0.01853630 -0.00881559 0.02472632
0.01676351 -0.00880030 0.01707623
0.00239418 -0.00950178 0.01573355
0.01104975 -0.00900370 0.01098978
0.01477475 -0.00880582 0.01016004
0.01476052 -0.00880583 0.01010804
0.01474628 -0.00880584 0.01005605
0.01473808 -0.00880554 0.01000432
0.01472987 -0.00880525 0.00995261
0.01472770 -0.00880466 0.00990117
0.01471345 -0.00880467 0.00984919
0.01471128 -0.00880408 0.00979776
0.01470912 -0.00880349 0.00974634
0.01468281 -0.00880409 0.00969378
0.01466858 -0.00880409 0.00964180
0.01466037 -0.00880380 0.00959010
0.01464011 -0.00880410 0.00953783
0.01462588 -0.00880411 0.00948584
0.01460563 -0.00880441 0.00943357
0.01459140 -0.00880442 0.00938158
0.01457717 -0.00880442 0.00932959
0.01455688 -0.00880473 0.00927730
0.01454869 -0.00880443 0.00922562
0.01452237 -0.00880504 0.00917303
0.01450212 -0.00880534 0.00912073
0.01448788 -0.00880535 0.00906874
0.01447365 -0.00880535 0.00901674
0.01445942 -0.00880536 0.00896475
0.00593069 -0.00919973 0.00655194
0.00591587 -0.00919973 0.00649774
0.00590761 -0.00919941 0.00644395
0.00589934 -0.00919910 0.00639016
0.00588451 -0.00919910 0.00633597
0.00586967 -0.00919911 0.00628177
0.00586799 -0.00919847 0.00622841
0.00586630 -0.00919782 0.00617505
0.00586464 -0.00919718 0.00612170
0.00586295 -0.00919654 0.00606835
0.00585471 -0.00919622 0.00601458
0.00584644 -0.00919590 0.00596083
0.00583161 -0.00919591 0.00590666
0.00581677 -0.00919591 0.00585248
0.00580853 -0.00919560 0.00579873
0.00671600 -0.00914159 0.00516975
0.01338711 -0.00875840 0.00156573
0.01340315 -0.00875693 0.00151672
0.01340106 -0.00875635 0.00146610
0.00342391 -0.00917284 -0.00465354
0.01385778 -0.00858191 -0.00967394
0.01383798 -0.00858220 -0.00972556
0.01858954 -0.00887096 0.02504046
0.01857528 -0.00887096 0.02498839
0.01857285 -0.00887037 0.02493592
0.01853009 -0.00887039 0.02477973
0.01852174 -0.00887009 0.02472747
0.01475178 -0.00885997 0.01010852
0.01473753 -0.00885997 0.01005652
0.01472330 -0.00885998 0.01000452
0.01472113 -0.00885938 0.00995308
0.01471895 -0.00885879 0.00990164
0.01470470 -0.00885879 0.00984965
0.01470254 -0.00885820 0.00979823
0.01470037 -0.00885761 0.00974680
0.01466805 -0.00885851 0.00969397
0.01465380 -0.00885852 0.00964198
0.01464561 -0.00885822 0.00959028
0.01463138 -0.00885823 0.00953829
0.01461715 -0.00885823 0.00948630
0.01460291 -0.00885824 0.00943431
0.01458868 -0.00885825 0.00938232
0.01456840 -0.00885855 0.00933004
0.01455417 -0.00885856 0.00927805
0.01455200 -0.00885796 0.00922666
0.01453175 -0.00885827 0.00917438
0.01450543 -0.00885887 0.00912178
0.01449120 -0.00885888 0.00906979
0.01447093 -0.00885919 0.00901749
0.00592129 -0.00925617 0.00655232
0.00591303 -0.00925585 0.00649852
0.00589819 -0.00925585 0.00644432
0.00588994 -0.00925553 0.00639053
0.00588168 -0.00925521 0.00633675
0.00586684 -0.00925522 0.00628256
0.00586516 -0.00925457 0.00622919
0.00585690 -0.00925425 0.00617541
0.00585523 -0.00925361 0.00612205
0.00586013 -0.00925264 0.00606912
0.00585188 -0.00925232 0.00601537
0.00584361 -0.00925200 0.00596161
0.00582878 -0.00925200 0.00590744
0.00581396 -0.00925201 0.00585326
0.00581229 -0.00925136 0.00579993
0.00671969 -0.00919704 0.00517097
0.01339650 -0.00881137 0.00156756
0.01341252 -0.00880989 0.00151856
0.00342773 -0.00922847 -0.00465198
0.00660446 -0.00904680 -0.00623225
0.01384124 -0.00863444 -0.00972395
0.01856072 -0.00892548 0.02498956
0.01855239 -0.00892518 0.02493728
0.01854996 -0.00892458 0.02488481
0.01851796 -0.00892549 0.02483335
0.01850963 -0.00892520 0.02478107
0.01850128 -0.00892490 0.02472881
0.01848111 -0.00892521 0.02467694
0.00579210 -0.00942018 0.01392742
0.01105049 -0.00911335 0.01099155
0.01474304 -0.00891411 0.01010899
0.01472880 -0.00891411 0.01005699
0.01472059 -0.00891382 0.01000527
0.01471841 -0.00891322 0.00995383
0.01471022 -0.00891292 0.00990211
0.01468995 -0.00891323 0.00984984
0.01469380 -0.00891233 0.00979869
0.01469766 -0.00891143 0.00974755
0.01465930 -0.00891264 0.00969443
0.01464505 -0.00891265 0.00964244
0.01464289 -0.00891205 0.00959103
0.01462866 -0.00891206 0.00953904
0.01459417 -0.00891237 0.00943477
0.01458596 -0.00891207 0.00938307
0.01456569 -0.00891238 0.00933079
0.01455146 -0.00891239 0.00927880
0.01454327 -0.00891209 0.00922711
0.01451695 -0.00891270 0.00917452
0.01449668 -0.00891301 0.00912222
0.01447642 -0.00891331 0.00906993
0.00591189 -0.00931261 0.00655270
0.00589536 -0.00931197 0.00644511
0.00588711 -0.00931165 0.00639132
0.00587885 -0.00931132 0.00633753
0.00587060 -0.00931100 0.00628375
0.00586233 -0.00931068 0.00622997
0.00586066 -0.00931003 0.00617661
0.00586556 -0.00930906 0.00612367
0.00586389 -0.00930841 0.00607033
0.00586221 -0.00930776 0.00601698
0.00586052 -0.00930711 0.00596365
0.00583912 -0.00930744 0.00590906
0.00582430 -0.00930745 0.00585489
0.00582261 -0.00930680 0.00580157
0.00870027 -0.00913837 0.00415819
0.01340587 -0.00886432 0.00156938
0.00343156 -0.00928409 -0.00465042
0.00659528 -0.00910202 -0.00623230
0.01854026 -0.00898031 0.02499093
0.01853783 -0.00897970 0.02493844
0.01852359 -0.00897971 0.02488637
0.01849750 -0.00898032 0.02483470
0.01848915 -0.00898003 0.02478243
0.01848081 -0.00897973 0.02473015
0.01846063 -0.00898004 0.02467828
0.01844639 -0.00898004 0.02462620
0.01842621 -0.00898035 0.02457432
0.00577095 -0.00947860 0.01398224
0.00578924 -0.00947692 0.01392821
0.01106027 -0.00916769 0.01099282
0.01472007 -0.00896825 0.01005747
0.01471186 -0.00896796 0.01000574
0.01470967 -0.00896736 0.00995430
0.01469544 -0.00896736 0.00990231
0.01468119 -0.00896737 0.00985031
0.01467299 -0.00896707 0.00979860
0.01467082 -0.00896647 0.00974717
0.01458928 -0.00896560 0.00938412
0.01456298 -0.00896621 0.00933154
0.01454271 -0.00896652 0.00927925
0.01453452 -0.00896622 0.00922756
0.00588931 -0.00936972 0.00655227
0.00589421 -0.00936874 0.00649927
0.00587770 -0.00936809 0.00639168
0.00587602 -0.00936744 0.00633831
0.00586118 -0.00936744 0.00628412
0.00585949 -0.00936679 0.00623075
0.00586441 -0.00936581 0.00617780
0.00586931 -0.00936482 0.00612487
0.00586763 -0.00936417 0.00607152
0.00587253 -0.00936319 0.00601861
0.00584945 -0.00936287 0.00591069
0.00659893 -0.00915661 -0.00623072
0.00659083 -0.00915630 -0.00628293
0.01383595 -0.00873950 -0.00972249
0.01853164 -0.00903453 0.02499188
0.01852329 -0.00903423 0.02493960
0.01850903 -0.00903424 0.02488753
0.01848295 -0.00903485 0.02483585
0.01847461 -0.00903455 0.02478357
0.01846035 -0.00903456 0.02473149
0.01844017 -0.00903487 0.02467962
0.00578140 -0.00953468 0.01398333
0.00580634 -0.00953265 0.01392947
0.01105750 -0.00922267 0.01099359
0.01470914 -0.00902180 0.01000649
0.01470695 -0.00902119 0.00995505
0.01459260 -0.00901912 0.00938516
0.01456630 -0.00901973 0.00933259
0.01453999 -0.00902035 0.00928000
0.01453179 -0.00902005 0.00922831
0.01451153 -0.00902036 0.00917602
0.00585358 -0.00942750 0.00655104
0.00587165 -0.00942585 0.00649885
0.00586997 -0.00942519 0.00644545
0.00586662 -0.00942388 0.00633868
0.00585836 -0.00942355 0.00628490
0.00585666 -0.00942290 0.00623153
0.00584841 -0.00942257 0.00617776
0.00584674 -0.00942191 0.00612439
0.00584507 -0.00942126 0.00607105
0.00584340 -0.00942060 0.00601771
0.01587307 -0.00882912 0.00045153
0.00127248 -0.00951833 -0.00378777
0.00658976 -0.00921183 -0.00623077
0.01384719 -0.00879202 -0.00967102
0.01383330 -0.00879202 -0.00972176
0.01851708 -0.00908907 0.02499305
0.01850875 -0.00908877 0.02494076
0.01849449 -0.00908877 0.02488868
0.01846838 -0.00908939 0.02483701
0.01846004 -0.00908909 0.02478473
0.01844579 -0.00908909 0.02473264
0.01842560 -0.00908941 0.02468076
0.01839951 -0.00909003 0.02462906
0.01837933 -0.00909034 0.02457717
0.01835914 -0.00909066 0.02452528
0.01104845 -0.00927797 0.01099410
0.01455756 -0.00907387 0.00933304
0.01453125 -0.00907449 0.00928045
0.01452908 -0.00907388 0.00922906
0.00571792 -0.00951058 0.00798695
0.00585075 -0.00948364 0.00655182
0.00586224 -0.00948231 0.00649922
0.00586714 -0.00948131 0.00644623
0.00586379 -0.00947999 0.00633946
0.00585553 -0.00947967 0.00628568
0.00584728 -0.00947934 0.00623189
0.00584559 -0.00947868 0.00617853
0.00583734 -0.00947835 0.00612476
0.00582908 -0.00947802 0.00607099
0.00581424 -0.00947803 0.00601680
0.01585868 -0.00888246 0.00045113
0.01586236 -0.00888158 0.00040190
0.01384455 -0.00884454 -0.00967029
0.01383065 -0.00884455 -0.00972103
0.01850252 -0.00914361 0.02499421
0.01850010 -0.00914300 0.02494172
0.01844199 -0.00914455 0.02483856
0.01843956 -0.00914394 0.02478607
0.01841938 -0.00914426 0.02473419
0.01839329 -0.00914488 0.02468249
0.01835534 -0.00914613 0.02463117
0.01834700 -0.00914582 0.02457889
0.01832089 -0.00914645 0.02452717
0.00572334 -0.00956720 0.00804175
0.00571507 -0.00956686 0.00798774
0.00570019 -0.00956687 0.00793337
0.00569190 -0.00956654 0.00787937
0.00569023 -0.00956587 0.00782573
0.00584133 -0.00954011 0.00655221
0.00585940 -0.00953844 0.00650000
0.00586431 -0.00953744 0.00644701
0.00586095 -0.00953611 0.00634024
0.00585270 -0.00953578 0.00628646
0.00585102 -0.00953511 0.00623309
0.00584276 -0.00953478 0.00617932
0.00583450 -0.00953445 0.00612554
0.00582625 -0.00953413 0.00607177
0.00581799 -0.00953380 0.00601801
0.01587218 -0.00893578 0.00055262
0.01586410 -0.00893549 0.00050223
0.01586190 -0.00893491 0.00045242
0.01841317 -0.00919912 0.02478762
0.01836096 -0.00920037 0.02468422
0.00568907 -0.00962282 0.00788015
0.00568740 -0.00962215 0.00782651
0.00582533 -0.00959692 0.00655218
0.00583683 -0.00959557 0.00649957
0.00585490 -0.00959389 0.00644739
0.00585812 -0.00959222 0.00634102
0.00584987 -0.00959189 0.00628724
0.00584818 -0.00959122 0.00623387
0.00584652 -0.00959055 0.00618051
0.00584485 -0.00958988 0.00612716
0.00584316 -0.00958921 0.00607381
0.00583491 -0.00958889 0.00602004
0.01587538 -0.00898823 0.00055391
0.01586731 -0.00898794 0.00050354
0.01585923 -0.00898765 0.00045316
0.01838762 -0.00928581 0.02700472
0.01837924 -0.00928550 0.02695218
0.01565880 -0.00938264 0.02376249
0.00500800 -0.00992343 0.02254346
0.00500633 -0.00992272 0.02248752
0.02095512 -0.00895237 0.01303628
0.00568624 -0.00967911 0.00788094
0.00568457 -0.00967843 0.00782729
0.00568290 -0.00967775 0.00777366
0.00580932 -0.00965373 0.00655216
0.00582083 -0.00965239 0.00649954
0.00584549 -0.00965036 0.00644776
0.00585529 -0.00964833 0.00634180
0.00584704 -0.00964800 0.00628802
0.00584535 -0.00964733 0.00623465
0.00585027 -0.00964632 0.00618170
0.00585517 -0.00964531 0.00612877
0.00584692 -0.00964497 0.00607501
0.00583209 -0.00964498 0.00602083
0.01587273 -0.00904098 0.00055464
0.01586464 -0.00904069 0.00050427
0.01838489 -0.00933993 0.02700548
0.01837650 -0.00933962 0.02695294
0.01829384 -0.00931079 0.02463518
0.01827365 -0.00931111 0.02458326
0.01825345 -0.00931143 0.02453134
0.01565604 -0.00943729 0.02376325
0.02095248 -0.00900463 0.01303701
0.02094997 -0.00900405 0.01298688
0.00570823 -0.00973640 0.00804373
0.00569168 -0.00973573 0.00793572
0.00569001 -0.00973505 0.00788207
0.00568834 -0.00973437 0.00782843
0.00568005 -0.00973403 0.00777444
0.00578842 -0.00971158 0.00660516
0.00580482 -0.00970920 0.00649951
0.00582290 -0.00970750 0.00644733
0.00584756 -0.00970546 0.00639556
0.00584422 -0.00970411 0.00628880
0.00584252 -0.00970343 0.00623543
0.00584744 -0.00970242 0.00618248
0.00585893 -0.00970106 0.00612996
0.00585724 -0.00970039 0.00607662
0.01838216 -0.00939405 0.02700623
0.01829112 -0.00936474 0.02463593
0.01827092 -0.00936507 0.02458401
0.02094418 -0.00905720 0.01303757
0.02094167 -0.00905660 0.01298743
0.00568716 -0.00979133 0.00788286
0.00568551 -0.00979065 0.00782922
0.00568384 -0.00978996 0.00777558
0.00574939 -0.00977116 0.00671044
0.00575432 -0.00977013 0.00665738
0.00577241 -0.00976842 0.00660513
0.00578392 -0.00976705 0.00655251
0.00579374 -0.00976500 0.00644648
0.00583157 -0.00976227 0.00639552
0.00582990 -0.00976159 0.00634214
0.00583313 -0.00975989 0.00623580
0.00582486 -0.00975955 0.00618202
0.00582319 -0.00975887 0.00612866
0.00582153 -0.00975819 0.00607532
0.00581326 -0.00975785 0.00602155
0.00558192 -0.00960161 -0.00568208
0.00556731 -0.00960162 -0.00573542
0.00555919 -0.00960129 -0.00578797
0.01837943 -0.00944817 0.02700698
0.00573996 -0.00982767 0.00671082
0.00574489 -0.00982664 0.00665777
0.00574981 -0.00982561 0.00660471
0.00576791 -0.00982389 0.00655248
0.00577775 -0.00982183 0.00644645
0.00580898 -0.00981943 0.00639508
0.00581390 -0.00981840 0.00634210
0.00581713 -0.00981668 0.00623575
0.00581546 -0.00981600 0.00618238
0.00582036 -0.00981497 0.00612944
0.00582527 -0.00981395 0.00607651
0.00557265 -0.00965718 -0.00568210
0.00556453 -0.00965685 -0.00573465
0.00554992 -0.00965686 -0.00578800
0.01838264 -0.00950196 0.02700746
0.01724072 -0.00940298 0.01600506
0.01724431 -0.00940203 0.01595357
0.01724558 -0.00940047 0.01585053
0.01416458 -0.00948767 0.01050399
0.00573222 -0.00988488 0.00676467
0.00572887 -0.00988351 0.00665775
0.00573380 -0.00988247 0.00660469
0.00575189 -0.00988074 0.00655246
0.00576173 -0.00987867 0.00644642
0.00576665 -0.00987763 0.00639342
0.00577156 -0.00987660 0.00634042
0.00580281 -0.00987418 0.00628909
0.00580606 -0.00987246 0.00618275
0.00581095 -0.00987142 0.00612981
0.00556986 -0.00971242 -0.00568134
0.00555526 -0.00971243 -0.00573469
0.00554065 -0.00971243 -0.00578804
0.01837990 -0.00955608 0.02700822
0.01407628 -0.00965850 0.01817101
0.01593585 -0.00955383 0.01786166
0.01592758 -0.00955351 0.01780943
0.01416185 -0.00954170 0.01050474
0.01415364 -0.00954138 0.01045282
0.00573765 -0.00994140 0.00681931
0.00572939 -0.00994106 0.00676545
0.00571944 -0.00994002 0.00665813
0.00571778 -0.00993933 0.00660468
0.00572270 -0.00993829 0.00655163
0.00573422 -0.00993690 0.00649900
0.00574572 -0.00993551 0.00644639
0.00574405 -0.00993482 0.00639297
0.00124136 -0.01002917 -0.00372823
0.00554599 -0.00976800 -0.00573472
0.00553137 -0.00976801 -0.00578807
0.00658746 -0.00970630 -0.00611864
0.01837717 -0.00961019 0.02700897
0.01590906 -0.00960924 0.01786232
0.01590076 -0.00960891 0.01781009
0.01723425 -0.00950791 0.01585193
0.01416129 -0.00959637 0.01055716
0.01415913 -0.00959572 0.01050550
0.01415698 -0.00959508 0.01045384
0.00572990 -0.00999863 0.00687318
0.00572821 -0.00999794 0.00681970
0.00571996 -0.00999759 0.00676583
0.00571661 -0.00999620 0.00665891
0.00570835 -0.00999586 0.00660506
0.00571328 -0.00999481 0.00655200
0.00571822 -0.00999376 0.00649897
0.00572972 -0.00999236 0.00644636
0.00573464 -0.00999132 0.00639335
0.00571319 -0.00999167 0.00633871
0.00730175 -0.00989003 0.00527604
0.00124530 -0.01008546 -0.00372669
0.00120854 -0.01008583 -0.00383687
0.00658470 -0.00976120 -0.00611788
0.00656207 -0.00976088 -0.00622313
0.01724911 -0.00956433 0.01611063
0.01724087 -0.00956402 0.01605896
0.01722670 -0.00956402 0.01600722
0.01723029 -0.00956306 0.01595573
0.01722796 -0.00956243 0.01590415
0.01722564 -0.00956179 0.01585259
0.01417463 -0.00964878 0.01050703
0.00571388 -0.01005553 0.00687318
0.00571880 -0.01005447 0.00682009
0.00571053 -0.01005413 0.00676622
0.00570720 -0.01005273 0.00665929
0.00569892 -0.01005238 0.00660543
0.00569727 -0.01005168 0.00655199
0.00569561 -0.01005098 0.00649855
0.00570711 -0.01004958 0.00644593
0.00570545 -0.01004888 0.00639251
0.00567742 -0.01004959 0.00633744
0.00730070 -0.00994633 0.00532964
0.00729895 -0.00994564 0.00527682
0.00125605 -0.01014139 -0.00372440
0.00121249 -0.01014212 -0.00383533
0.00551932 -0.00987883 -0.00578734
0.01040903 -0.01005307 0.02021547
0.01041345 -0.01005202 0.02016133
0.01722865 -0.00961888 0.01611114
0.01722632 -0.00961824 0.01605955
0.01721807 -0.00961792 0.01600788
0.01417190 -0.00970280 0.01050778
0.01418795 -0.00970117 0.01045691
0.00899111 -0.00996961 0.00938645
0.00569786 -0.01011243 0.00687318
0.00570278 -0.01011137 0.00682008
0.00570111 -0.01011067 0.00676660
0.00570603 -0.01010960 0.00671353
0.00568952 -0.01010891 0.00660582
0.00568783 -0.01010820 0.00655237
0.00567958 -0.01010786 0.00649852
0.00567792 -0.01010715 0.00644508
0.00566965 -0.01010680 0.00639125
0.00562182 -0.01010858 0.00633495
0.00729789 -0.01000193 0.00533042
0.00729614 -0.01000124 0.00527759
0.02438943 -0.00934776 0.02074954
0.02438122 -0.00934746 0.02069937
0.02436200 -0.00934777 0.02064934
0.01041262 -0.01010861 0.02021619
0.01041704 -0.01010755 0.02016206
0.01040226 -0.01010756 0.02010809
0.01720585 -0.00967279 0.01606005
0.01719168 -0.00967280 0.01600830
0.01415704 -0.00975749 0.01050801
0.01417309 -0.00975584 0.01045713
0.00567523 -0.01016969 0.00687278
0.00568016 -0.01016863 0.00681968
0.00568509 -0.01016756 0.00676660
0.00569661 -0.01016614 0.00671391
0.00568835 -0.01016579 0.00666005
0.00567350 -0.01016580 0.00660579
0.00566356 -0.01016474 0.00649850
0.00565530 -0.01016439 0.00644464
0.00730331 -0.01005788 0.00538446
0.00730155 -0.01005719 0.00533163
0.01041619 -0.01016414 0.02021692
0.01042064 -0.01016308 0.02016278
0.01040585 -0.01016308 0.02010882
0.01039748 -0.01016274 0.02005480
0.01414824 -0.00981185 0.01050850
0.01415823 -0.00981052 0.01045737
0.00543958 -0.01024419 0.00723415
0.00565754 -0.01022590 0.00681928
0.00566907 -0.01022447 0.00676659
0.00568718 -0.01022268 0.00671430
0.00567892 -0.01022233 0.00666044
0.00567065 -0.01022198 0.00660657
0.00566900 -0.01022127 0.00655313
0.00565414 -0.01022127 0.00649886
0.00564587 -0.01022092 0.00644502
0.00730699 -0.01011314 0.00538567
0.00730523 -0.01011244 0.00533285
0.00729053 -0.01011245 0.00527914
0.00554018 -0.01004454 -0.00567833
0.00552557 -0.01004455 -0.00573168
0.00551096 -0.01004455 -0.00578503
0.01833312 -0.00978505 0.02056515
0.01041979 -0.01021966 0.02021764
0.01042421 -0.01021860 0.02016351
0.01040943 -0.01021861 0.02010955
0.01040746 -0.01021790 0.02005548
0.00545329 -0.01030119 0.00734292
0.00544500 -0.01030084 0.00728893
0.00543673 -0.01030048 0.00723493
0.00542848 -0.01030013 0.00718094
0.00543343 -0.01029905 0.00712772
0.00544500 -0.01029760 0.00707490
0.00544335 -0.01029689 0.00702132
0.00563984 -0.01028210 0.00676579
0.00565137 -0.01028067 0.00671310
0.00565630 -0.01027959 0.00666002
0.00564803 -0.01027924 0.00660616
0.00565298 -0.01027816 0.00655310
0.00728948 -0.01016875 0.00533274
0.00554389 -0.01009943 -0.00567675
0.00552116 -0.01009910 -0.00578266
0.00811191 -0.00993692 -0.00698512
0.01831865 -0.00983932 0.02056602
0.01042779 -0.01027412 0.02016423
0.01041941 -0.01027377 0.02011022
0.00886367 -0.01019456 0.00917257
0.00544548 -0.01036183 0.00761117
0.00544052 -0.01035967 0.00745021
0.00543886 -0.01035894 0.00739657
0.00543721 -0.01035822 0.00734295
0.00543556 -0.01035750 0.00728932
0.00541902 -0.01035678 0.00718134
0.00542398 -0.01035570 0.00712812
0.00542232 -0.01035498 0.00707453
0.00542729 -0.01035389 0.00702132
0.00542563 -0.01035317 0.00696775
0.00563534 -0.01033758 0.00671309
0.00562708 -0.01033723 0.00665920
0.00563201 -0.01033615 0.00660614
0.00911988 -0.01010719 0.00436298
0.00552975 -0.01015607 -0.00562582
0.00554110 -0.01015467 -0.00567599
0.00551188 -0.01015468 -0.00578269
0.01350926 -0.00965272 -0.00941102
0.01666379 -0.01002133 0.02289823
0.01665546 -0.01002099 0.02284567
0.01042497 -0.01032999 0.02016501
0.00892408 -0.01024893 0.00933493
0.00892222 -0.01024823 0.00928199
0.00887370 -0.01024931 0.00917396
0.00543271 -0.01041707 0.00750427
0.00542444 -0.01041671 0.00745025
0.00542942 -0.01041562 0.00739699
0.00542775 -0.01041489 0.00734336
0.00542611 -0.01041417 0.00728973
0.00541617 -0.01041308 0.00718212
0.00541452 -0.01041235 0.00712852
0.00541286 -0.01041163 0.00707492
0.00541121 -0.01041090 0.00702134
0.00540957 -0.01041018 0.00696775
0.00552696 -0.01021132 -0.00562506
0.00553831 -0.01020991 -0.00567522
0.00552371 -0.01020992 -0.00572857
0.00550909 -0.01020992 -0.00578193
0.01665503 -0.01007595 0.02289912
0.01665272 -0.01007527 0.02284642
0.01666242 -0.01007391 0.02279345
0.02421059 -0.00947566 0.01157761
0.02422427 -0.00947415 0.01152925
0.00540175 -0.01047742 0.00766420
0.00541829 -0.01047486 0.00755797
0.00541663 -0.01047412 0.00750431
0.00541498 -0.01047339 0.00745066
0.00541334 -0.01047266 0.00739702
0.00541830 -0.01047156 0.00734376
0.00541665 -0.01047083 0.00729014
0.00540672 -0.01046974 0.00718253
0.00540507 -0.01046901 0.00712892
0.00540341 -0.01046829 0.00707532
0.00540838 -0.01046719 0.00702212
0.00540672 -0.01046646 0.00696853
0.00539847 -0.01046610 0.00691457
0.00552417 -0.01026656 -0.00562428
0.00552903 -0.01026551 -0.00567526
0.00551443 -0.01026551 -0.00572860
0.00810999 -0.01009975 -0.00698202
0.01176964 -0.01035336 0.01940428
0.02421345 -0.00952655 0.01157854
0.02422169 -0.00952533 0.01152996
0.00535418 -0.01053708 0.00771612
0.00537902 -0.01053486 0.00766389
0.00541049 -0.01053228 0.00761204
0.00540055 -0.01053119 0.00750435
0.00539890 -0.01053045 0.00745070
0.00539726 -0.01052972 0.00739705
0.00539561 -0.01052898 0.00734342
0.00540058 -0.01052788 0.00729016
0.00539891 -0.01052714 0.00723654
0.00539728 -0.01052641 0.00718293
0.00539395 -0.01052494 0.00707572
0.00539231 -0.01052421 0.00702213
0.00537743 -0.01052422 0.00696777
0.00552787 -0.01032145 -0.00562271
0.00553274 -0.01032039 -0.00567368
0.00552462 -0.01032004 -0.00572623
0.00551002 -0.01032005 -0.00577958
0.00810724 -0.01015414 -0.00698126
0.01161103 -0.01031634 0.01287031
0.01160276 -0.01031600 0.01281743
0.01158823 -0.01031600 0.01276436
0.01157370 -0.01031601 0.01271129
0.02421087 -0.00957774 0.01157925
0.02422455 -0.00957621 0.01153088
0.00534636 -0.01059455 0.00777024
0.00535631 -0.01059233 0.00766357
0.00539276 -0.01058862 0.00755842
0.00539772 -0.01058751 0.00750513
0.00538945 -0.01058714 0.00745111
0.00538780 -0.01058641 0.00739746
0.00538614 -0.01058567 0.00734382
0.00539112 -0.01058456 0.00729056
0.00539608 -0.01058345 0.00723733
0.00539443 -0.01058271 0.00718371
0.00539112 -0.01058124 0.00707650
0.00539610 -0.01058013 0.00702330
0.00538121 -0.01058013 0.00696894
0.00553158 -0.01037634 -0.00562115
0.00553645 -0.01037527 -0.00567211
0.00552183 -0.01037528 -0.00572547
0.01523739 -0.01033254 0.02373255
0.01592657 -0.01021227 0.01854993
0.01445653 -0.01028258 0.01765491
0.00726071 -0.01064792 0.01463052
0.01162279 -0.01037129 0.01292414
0.01160200 -0.01037165 0.01287088
0.01159373 -0.01037130 0.01281800
0.01157920 -0.01037131 0.01276493
0.01156467 -0.01037131 0.01271186
0.00533690 -0.01065128 0.00777066
0.00532861 -0.01065091 0.00771659
0.00534685 -0.01064905 0.00766399
0.00538826 -0.01064421 0.00750555
0.00538661 -0.01064346 0.00745189
0.00538495 -0.01064272 0.00739824
0.00538330 -0.01064198 0.00734460
0.00538166 -0.01064124 0.00729097
0.00539324 -0.01063975 0.00723811
0.00539160 -0.01063901 0.00718450
0.00539491 -0.01063716 0.00707767
0.00539987 -0.01063604 0.00702447
0.00552879 -0.01043158 -0.00562038
0.00553367 -0.01043051 -0.00567134
0.01344851 -0.00991849 -0.00941438
0.01343459 -0.00991850 -0.00946523
0.01338096 -0.00991917 -0.00961954
0.01336703 -0.00991917 -0.00967038
0.01335311 -0.00991918 -0.00972123
0.01333919 -0.00991918 -0.00977208
0.01524074 -0.01038695 0.02373314
0.00723818 -0.01070539 0.01463090
0.01163454 -0.01042623 0.01297797
0.01162001 -0.01042623 0.01292490
0.01160549 -0.01042624 0.01287183
0.01159096 -0.01042625 0.01281876
0.01157643 -0.01042625 0.01276569
0.01156190 -0.01042626 0.01271262
0.00588204 -0.01074565 0.01221340
0.00587372 -0.01074528 0.01215899
0.00584550 -0.01074605 0.01210393
0.00532079 -0.01070840 0.00777072
0.00533739 -0.01070578 0.00766441
0.00538541 -0.01070053 0.00750633
0.00538376 -0.01069979 0.00745268
0.00537549 -0.01069942 0.00739865
0.00537385 -0.01069867 0.00734501
0.00537220 -0.01069793 0.00729137
0.00538377 -0.01069643 0.00723851
0.00538214 -0.01069569 0.00718489
0.00538544 -0.01069382 0.00707806
0.00539042 -0.01069270 0.00702486
0.00553088 -0.01048575 -0.00567058
0.00808010 -0.01031835 -0.00698148
0.00723533 -0.01076175 0.01463169
0.01165882 -0.01048045 0.01303217
0.01163803 -0.01048082 0.01297892
0.01162350 -0.01048082 0.01292585
0.01160897 -0.01048083 0.01287278
0.01159444 -0.01048084 0.01281972
0.01157992 -0.01048084 0.01276665
0.01156539 -0.01048085 0.01271358
0.00586593 -0.01080297 0.01221376
0.00585760 -0.01080259 0.01215934
0.00582939 -0.01080336 0.01210428
0.00580116 -0.01080413 0.01204922
0.00579283 -0.01080376 0.01199481
0.00530469 -0.01076552 0.00777078
0.00530967 -0.01076439 0.00771743
0.00532791 -0.01076251 0.00766483
0.00535774 -0.01075912 0.00755930
0.00537597 -0.01075724 0.00750674
0.00537431 -0.01075649 0.00745309
0.00536603 -0.01075612 0.00739906
0.00535776 -0.01075574 0.00734504
0.00535612 -0.01075499 0.00729141
0.00536771 -0.01075349 0.00723853
0.00537267 -0.01075237 0.00718530
0.00537764 -0.01075124 0.00713207
0.00807735 -0.01037275 -0.00698072
0.01335579 -0.01002480 -0.00966980
0.00722595 -0.01081849 0.01463233
0.01170166 -0.01053610 0.01324485
0.01166433 -0.01053575 0.01308582
0.01165605 -0.01053540 0.01303293
0.01163526 -0.01053576 0.01297968
0.01162073 -0.01053577 0.01292661
0.01160620 -0.01053577 0.01287355
0.01159167 -0.01053578 0.01282048
0.01157714 -0.01053579 0.01276741
0.01156262 -0.01053579 0.01271434
0.00586307 -0.01085953 0.01221455
0.00584812 -0.01085954 0.01215992
0.00582653 -0.01085993 0.01210507
0.00578998 -0.01086032 0.01199559
0.00576839 -0.01086071 0.01194074
0.00535981 -0.01082111 0.00793561
0.00535154 -0.01082074 0.00788153
0.00532340 -0.01082150 0.00782636
0.00530185 -0.01082189 0.00777156
0.00530684 -0.01082075 0.00771821
0.00532506 -0.01081886 0.00766561
0.00533503 -0.01081660 0.00755897
0.00535987 -0.01081432 0.00750679
0.00536320 -0.01081244 0.00739984
0.00535493 -0.01081206 0.00734582
0.00535327 -0.01081131 0.00729219
0.00536487 -0.01080980 0.00723931
0.00536984 -0.01080867 0.00718608
0.01055865 -0.01026723 -0.00795115
0.01335314 -0.01007745 -0.00966907
0.01169889 -0.01059105 0.01324562
0.01168436 -0.01059105 0.01319255
0.01166983 -0.01059106 0.01313948
0.01166156 -0.01059070 0.01308659
0.01164703 -0.01059071 0.01303352
0.01163249 -0.01059071 0.01298045
0.01161171 -0.01059108 0.01292720
0.01160343 -0.01059072 0.01287431
0.01158890 -0.01059073 0.01282124
0.01157437 -0.01059073 0.01276817
0.01155984 -0.01059074 0.01271511
0.00588182 -0.01091570 0.01227016
0.00586686 -0.01091571 0.01221554
0.00584526 -0.01091610 0.01216070
0.00582369 -0.01091649 0.01210586
0.00579545 -0.01091726 0.01205079
0.00578713 -0.01091688 0.01199638
0.00576553 -0.01091727 0.01194153
0.01071045 -0.01059396 0.00979404
0.00538017 -0.01087785 0.00804492
0.00535864 -0.01087823 0.00799012
0.00535037 -0.01087786 0.00793603
0.00533545 -0.01087787 0.00788159
0.00530066 -0.01087902 0.00782607
0.00528574 -0.01087902 0.00777162
0.00529736 -0.01087750 0.00771863
0.00531396 -0.01087484 0.00761233
0.00531231 -0.01087408 0.00755864
0.00533716 -0.01087180 0.00750645
0.00534877 -0.01087028 0.00745353
0.01054981 -0.01032118 -0.00795126
0.01169612 -0.01064599 0.01324638
0.01165253 -0.01064601 0.01308717
0.01164426 -0.01064565 0.01303429
0.01162347 -0.01064602 0.01298103
0.01160894 -0.01064603 0.01292796
0.01159441 -0.01064603 0.01287489
0.01158613 -0.01064567 0.01282201
0.01157160 -0.01064568 0.01276894
0.00587897 -0.01097226 0.01227095
0.00585738 -0.01097265 0.01221612
0.00584242 -0.01097266 0.01216149
0.00582084 -0.01097305 0.01210664
0.00579260 -0.01097383 0.01205157
0.00578427 -0.01097345 0.01199717
0.00576268 -0.01097384 0.01194231
0.01079723 -0.01064708 0.01000853
0.01077642 -0.01064745 0.00995518
0.01075560 -0.01064781 0.00990182
0.01071593 -0.01064928 0.00984760
0.01070768 -0.01064892 0.00979480
0.01072459 -0.01064710 0.00974317
0.00543860 -0.01093495 0.00831722
0.00543696 -0.01093419 0.00826346
0.00544192 -0.01093305 0.00821006
0.00542039 -0.01093344 0.00815528
0.00540549 -0.01093344 0.00810085
0.00537069 -0.01093460 0.00804534
0.00534916 -0.01093499 0.00799055
0.00533426 -0.01093499 0.00793610
0.00532599 -0.01093462 0.00788202
0.00529781 -0.01093539 0.00782685
0.00528291 -0.01093540 0.00777240
0.00529452 -0.01093387 0.00771941
0.00530449 -0.01093158 0.00761274
0.00530285 -0.01093081 0.00755906
0.00530119 -0.01093005 0.00750537
0.01337363 -0.01018207 -0.00961499
0.01335377 -0.01018241 -0.00966672
0.01333985 -0.01018242 -0.00971757
0.01333186 -0.01018209 -0.00976753
0.00393939 -0.01116419 0.01357929
0.01164149 -0.01070060 0.01303505
0.01162070 -0.01070097 0.01298179
0.01160617 -0.01070098 0.01292872
0.01159164 -0.01070098 0.01287566
0.01157711 -0.01070099 0.01282259
0.00584790 -0.01102960 0.01221669
0.00583294 -0.01102960 0.01216206
0.00581135 -0.01103000 0.01210721
0.00578313 -0.01103078 0.01205214
0.00578143 -0.01103001 0.01199795
0.00576647 -0.01103002 0.01194332
0.00852501 -0.01085234 0.01102370
0.01080900 -0.01070202 0.01006237
0.01079446 -0.01070203 0.01000930
0.01077993 -0.01070203 0.00995622
0.01075912 -0.01070240 0.00990287
0.01070687 -0.01070461 0.00984808
0.00543576 -0.01099132 0.00831800
0.00543411 -0.01099056 0.00826425
0.00543244 -0.01098979 0.00821050
0.00541754 -0.01098980 0.00815607
0.00539601 -0.01099019 0.00810128
0.00536123 -0.01099135 0.00804578
0.00533968 -0.01099174 0.00799098
0.00532478 -0.01099175 0.00793653
0.00531651 -0.01099137 0.00788245
0.00529496 -0.01099176 0.00782764
0.00528669 -0.01099138 0.00777355
0.00529167 -0.01099023 0.00772020
0.00529005 -0.01098947 0.00766649
0.00528674 -0.01098794 0.00755910
0.01460718 -0.01033065 0.00090504
0.01902054 -0.01046748 0.02233049
0.01900053 -0.01046784 0.02227889
0.01898637 -0.01046784 0.02222717
0.01898979 -0.01046680 0.02217512
0.02227142 -0.01023570 0.01992247
0.01161167 -0.01075628 0.01298238
0.01159714 -0.01075629 0.01292931
0.01158887 -0.01075593 0.01287642
0.01156808 -0.01075630 0.01282316
0.00578523 -0.01108618 0.01199896
0.00854613 -0.01090577 0.01097220
0.01083331 -0.01075623 0.01011677
0.01079994 -0.01075734 0.01006286
0.01079170 -0.01075698 0.01001006
0.01078343 -0.01075661 0.00995727
0.01075634 -0.01075736 0.00990363
0.01071039 -0.01075921 0.00984913
0.01070842 -0.01075848 0.00979662
0.00542463 -0.01104731 0.00826469
0.00542961 -0.01104616 0.00821129
0.00541471 -0.01104616 0.00815685
0.00538655 -0.01104695 0.00810171
0.00535175 -0.01104811 0.00804621
0.00533023 -0.01104851 0.00799140
0.00531532 -0.01104851 0.00793695
0.00530703 -0.01104813 0.00788287
0.00529876 -0.01104775 0.00782878
0.00529049 -0.01104737 0.00777470
0.00528884 -0.01104660 0.00772098
0.00529218 -0.01104467 0.00761394
0.00529054 -0.01104390 0.00756025
0.01902956 -0.01052032 0.02233099
0.01901540 -0.01052033 0.02227928
0.01899539 -0.01052068 0.02222768
0.02229041 -0.01029010 0.02012596
0.02226010 -0.01028945 0.01997399
0.02226314 -0.01028844 0.01992324
0.01084508 -0.01081117 0.01017060
0.01083054 -0.01081118 0.01011753
0.01080346 -0.01081192 0.01006390
0.01079519 -0.01081156 0.01001111
0.01078695 -0.01081120 0.00995832
0.01076613 -0.01081157 0.00990496
0.01072019 -0.01081343 0.00985046
0.01071823 -0.01081269 0.00979796
0.00542180 -0.01110369 0.00826547
0.00542676 -0.01110252 0.00821207
0.00540523 -0.01110292 0.00815729
0.00538372 -0.01110331 0.00810249
0.00534892 -0.01110449 0.00804699
0.00532739 -0.01110488 0.00799218
0.00531249 -0.01110489 0.00793774
0.00531082 -0.01110412 0.00788401
0.00530255 -0.01110373 0.00782993
0.00528765 -0.01110374 0.00777548
0.00529262 -0.01110257 0.00772213
0.00528935 -0.01110103 0.00761473
0.00528769 -0.01110026 0.00756104
0.01678179 -0.01081741 0.02902125
0.02228214 -0.01034286 0.02012674
0.02226828 -0.01034287 0.02007611
0.02225441 -0.01034287 0.02002547
0.02225183 -0.01034220 0.01997476
0.01083602 -0.01086649 0.01017109
0.01082778 -0.01086613 0.01011830
0.01079440 -0.01086725 0.01006439
0.01078616 -0.01086688 0.01001159
0.01078418 -0.01086614 0.00995908
0.01076336 -0.01086652 0.00990573
0.01071742 -0.01086839 0.00985123
0.01071545 -0.01086765 0.00979872
0.00542724 -0.01116044 0.00832035
0.00541896 -0.01116005 0.00826626
0.00541730 -0.01115928 0.00821251
0.00540239 -0.01115928 0.00815807
0.00538087 -0.01115968 0.00810328
0.00534607 -0.01116086 0.00804778
0.00532454 -0.01116126 0.00799297
0.00530964 -0.01116127 0.00793852
0.00531462 -0.01116010 0.00788515
0.00530635 -0.01115971 0.00783107
0.00529143 -0.01115972 0.00777663
0.00528979 -0.01115894 0.00772292
0.00529312 -0.01115699 0.00761588
0.00528486 -0.01115661 0.00756182
0.01678510 -0.01087176 0.02902167
0.01910423 -0.01062596 0.02253881
0.01900513 -0.01062600 0.02217689
0.02228208 -0.01039596 0.02017820
0.02226563 -0.01039529 0.02007684
0.02225177 -0.01039529 0.02002621
0.02224354 -0.01039496 0.01997554
0.01081009 -0.01092368 0.01022328
0.01082698 -0.01092182 0.01017157
0.01082501 -0.01092108 0.01011906
0.01077907 -0.01092295 0.01006459
0.01076452 -0.01092295 0.01001152
0.01076886 -0.01092184 0.00995928
0.01076059 -0.01092147 0.00990649
0.00543103 -0.01121642 0.00832148
0.00542274 -0.01121603 0.00826739
0.00542109 -0.01121525 0.00821364
0.00540619 -0.01121526 0.00815920
0.00537802 -0.01121605 0.00810406
0.00534986 -0.01121684 0.00804891
0.00532171 -0.01121764 0.00799375
0.00531341 -0.01121724 0.00793967
0.00531840 -0.01121607 0.00788630
0.00531012 -0.01121568 0.00783222
0.00529522 -0.01121569 0.00777778
0.00530019 -0.01121452 0.00772443
0.00530353 -0.01121256 0.00761740
0.00528863 -0.01121257 0.00756298
0.00527373 -0.01121258 0.00750855
0.01678234 -0.01092649 0.02902243
0.02226254 -0.01044940 0.02017908
0.02226558 -0.01044839 0.02012829
0.02225171 -0.01044839 0.02007767
0.02223223 -0.01044874 0.02002707
0.02222963 -0.01044806 0.01997635
0.01083048 -0.01097639 0.01017262
0.01083480 -0.01097527 0.01012038
0.01076177 -0.01097791 0.01001228
0.01077865 -0.01097604 0.00996061
0.01077040 -0.01097567 0.00990783
0.00543645 -0.01127318 0.00837637
0.00544143 -0.01127200 0.00832296
0.00542651 -0.01127201 0.00826851
0.00542487 -0.01127122 0.00821477
0.00540334 -0.01127162 0.00815999
0.00538181 -0.01127202 0.00810520
0.00534701 -0.01127321 0.00804970
0.00532548 -0.01127361 0.00799490
0.00532384 -0.01127283 0.00794117
0.00532219 -0.01127205 0.00788744
0.00531392 -0.01127165 0.00783336
0.00529900 -0.01127166 0.00777893
0.00530399 -0.01127048 0.00772558
0.00530897 -0.01126930 0.00767224
0.00531395 -0.01126813 0.00761892
0.00531231 -0.01126734 0.00756524
0.00529741 -0.01126735 0.00751082
0.00899191 -0.01100929 0.00541214
0.00900277 -0.01100779 0.00536066
0.02224299 -0.01050287 0.02017995
0.02224603 -0.01050184 0.02012917
0.01083399 -0.01103096 0.01017365
0.01077785 -0.01103174 0.01001388
0.00542699 -0.01132995 0.00837681
0.00543196 -0.01132876 0.00832339
0.00542368 -0.01132837 0.00826930
0.00541539 -0.01132798 0.00821521
0.00539386 -0.01132838 0.00816043
0.00537235 -0.01132879 0.00810563
0.00534418 -0.01132958 0.00805048
0.00532927 -0.01132959 0.00799604
0.00531437 -0.01132960 0.00794159
0.00531934 -0.01132841 0.00788823
0.00531107 -0.01132802 0.00783415
0.00529617 -0.01132803 0.00777971
0.00529452 -0.01132724 0.00772600
0.00531112 -0.01132447 0.00761971
0.00901642 -0.01106363 0.00546699
0.00900821 -0.01106326 0.00541421
-0.00215271 -0.01161698 -0.00213048
-0.00213979 -0.01161532 -0.00218339
0.01260798 -0.01061039 -0.00874035
0.00549704 -0.01138907 0.00881087
0.00548875 -0.01138867 0.00875674
0.00547385 -0.01138868 0.00870228
0.00545894 -0.01138868 0.00864783
0.00545728 -0.01138789 0.00859404
0.00544900 -0.01138750 0.00853992
0.00544071 -0.01138711 0.00848581
0.00541918 -0.01138751 0.00843101
0.00541091 -0.01138712 0.00837691
0.00541587 -0.01138593 0.00832349
0.00540759 -0.01138553 0.00826939
0.00540593 -0.01138474 0.00821565
0.00538440 -0.01138515 0.00816085
0.00536287 -0.01138555 0.00810606
0.00534797 -0.01138556 0.00805162
0.00532643 -0.01138596 0.00799682
0.00531152 -0.01138597 0.00794237
0.00531650 -0.01138478 0.00788901
0.00530823 -0.01138439 0.00783493
0.00528669 -0.01138479 0.00778013
0.00529167 -0.01138360 0.00772678
0.00530329 -0.01138201 0.00767381
0.00899643 -0.01112063 0.00551883
0.00902636 -0.01111797 0.00546862
0.01260531 -0.01066332 -0.00873961
0.00556213 -0.01144583 0.00908363
0.00554723 -0.01144583 0.00902917
0.00553893 -0.01144544 0.00897503
0.00551739 -0.01144584 0.00892025
0.00550249 -0.01144585 0.00886579
0.00549421 -0.01144545 0.00881166
0.00547929 -0.01144546 0.00875720
0.00547101 -0.01144506 0.00870307
0.00545609 -0.01144507 0.00864861
0.00544782 -0.01144468 0.00859449
0.00543953 -0.01144428 0.00854037
0.00543125 -0.01144389 0.00848625
0.00540972 -0.01144429 0.00843146
0.00540143 -0.01144390 0.00837735
0.00540639 -0.01144270 0.00832393
0.00539812 -0.01144230 0.00826983
0.00538984 -0.01144191 0.00821573
0.00537494 -0.01144192 0.00816129
0.00536004 -0.01144192 0.00810685
0.00533849 -0.01144233 0.00805205
0.00531034 -0.01144314 0.00799689
0.00530206 -0.01144274 0.00794281
0.00530703 -0.01144154 0.00788943
0.00529875 -0.01144115 0.00783536
0.00527723 -0.01144156 0.00778055
0.00528882 -0.01143996 0.00772757
0.01260865 -0.01071590 -0.00873801
0.01392668 -0.01104596 0.01264105
0.00554438 -0.01150222 0.00902996
0.00552946 -0.01150222 0.00897550
0.00551456 -0.01150223 0.00892104
0.00549302 -0.01150264 0.00886625
0.00547811 -0.01150265 0.00881178
0.00546983 -0.01150225 0.00875765
0.00545491 -0.01150225 0.00870319
0.00544000 -0.01150226 0.00864873
0.00543171 -0.01150187 0.00859460
0.00542343 -0.01150147 0.00854048
0.00541516 -0.01150107 0.00848636
0.00539361 -0.01150148 0.00843156
0.00539196 -0.01150068 0.00837779
0.00539032 -0.01149988 0.00832403
0.00538865 -0.01149908 0.00827027
0.00538038 -0.01149868 0.00821617
0.00537872 -0.01149788 0.00816242
0.00535719 -0.01149829 0.00810763
0.00533566 -0.01149870 0.00805283
0.00530750 -0.01149951 0.00799768
0.00529921 -0.01149911 0.00794359
0.00530420 -0.01149791 0.00789022
0.00528266 -0.01149832 0.00783542
0.00526112 -0.01149873 0.00778061
0.00904994 -0.01122816 0.00557658
0.01717086 -0.01095264 0.01582067
0.00618109 -0.01158577 0.01299369
0.00555645 -0.01155860 0.00908520
0.00554153 -0.01155861 0.00903074
0.00552000 -0.01155902 0.00897596
0.00550508 -0.01155902 0.00892149
0.00548355 -0.01155944 0.00886670
0.00546864 -0.01155944 0.00881224
0.00545374 -0.01155945 0.00875778
0.00543882 -0.01155945 0.00870331
0.00542390 -0.01155946 0.00864884
0.00541562 -0.01155906 0.00859472
0.00541396 -0.01155826 0.00854093
0.00539905 -0.01155826 0.00848647
0.00537752 -0.01155867 0.00843166
0.00536923 -0.01155828 0.00837755
0.00536758 -0.01155747 0.00832378
0.00535931 -0.01155707 0.00826967
0.00535765 -0.01155627 0.00821591
0.00534938 -0.01155587 0.00816180
0.00532784 -0.01155628 0.00810701
0.00531957 -0.01155588 0.00805291
0.00529802 -0.01155629 0.00799811
0.00528975 -0.01155589 0.00794401
0.00530136 -0.01155428 0.00789100
0.00520523 -0.01155834 0.00777850
0.01259132 -0.01082247 -0.00873826
0.00863731 -0.01151675 0.01461877
0.00554699 -0.01161540 0.00908567
0.00553207 -0.01161540 0.00903121
0.00551715 -0.01161541 0.00897674
0.00549562 -0.01161582 0.00892196
0.00547409 -0.01161624 0.00886716
0.00545917 -0.01161624 0.00881269
0.00544426 -0.01161625 0.00875823
0.00542273 -0.01161666 0.00870343
0.00540116 -0.01161707 0.00864863
0.00539289 -0.01161667 0.00859449
0.00539124 -0.01161586 0.00854070
0.00537632 -0.01161587 0.00848624
0.00535479 -0.01161628 0.00843143
0.00535148 -0.01161467 0.00832387
0.00534320 -0.01161427 0.00826976
0.00532828 -0.01161427 0.00821531
0.00530675 -0.01161469 0.00816050
0.00529847 -0.01161428 0.00810639
0.00529683 -0.01161348 0.00805264
0.00517584 -0.01161635 0.00777782
0.01259464 -0.01087505 -0.00873667
0.00864096 -0.01157228 0.01461968
0.00863263 -0.01157189 0.01456579
0.00861783 -0.01157189 0.01451178
0.00599420 -0.01165863 0.00996713
0.00555243 -0.01167219 0.00914060
0.00553751 -0.01167220 0.00908613
0.00552261 -0.01167220 0.00903167
0.00550106 -0.01167262 0.00897688
0.00547953 -0.01167303 0.00892209
0.00545798 -0.01167345 0.00886730
0.00544307 -0.01167345 0.00881283
0.00542152 -0.01167387 0.00875802
0.00538671 -0.01167510 0.00870256
0.00536518 -0.01167552 0.00864775
0.00536352 -0.01167470 0.00859394
0.00535524 -0.01167430 0.00853980
0.00533371 -0.01167472 0.00848499
0.00531879 -0.01167472 0.00843051
0.00533040 -0.01167309 0.00837741
0.00533538 -0.01167187 0.00832397
0.00532711 -0.01167147 0.00826985
0.00528401 -0.01167230 0.00816022
0.00863813 -0.01162821 0.01462046
0.00863628 -0.01162741 0.01456670
0.00600286 -0.01171333 0.00991467
0.00595818 -0.01171335 0.00975148
0.00588216 -0.01171623 0.00964058
0.00582762 -0.01171869 0.00958436
0.00556450 -0.01172858 0.00919585
0.00554296 -0.01172900 0.00914107
0.00552805 -0.01172900 0.00908660
0.00551313 -0.01172901 0.00903213
0.00548497 -0.01172983 0.00897702
0.00545681 -0.01173066 0.00892190
0.00543526 -0.01173108 0.00886710
0.00542034 -0.01173109 0.00881262
0.00540543 -0.01173109 0.00875815
0.00537062 -0.01173233 0.00870267
0.00534907 -0.01173275 0.00864786
0.00534078 -0.01173234 0.00859371
0.00532587 -0.01173235 0.00853923
0.00530432 -0.01173276 0.00848441
0.00529604 -0.01173236 0.00843027
0.00529438 -0.01173154 0.00837648
0.00531265 -0.01172949 0.00832372
0.00530437 -0.01172909 0.00826959
0.00529608 -0.01172868 0.00821548
0.00526790 -0.01172951 0.00816031
0.00608109 -0.01176921 0.01018772
0.00607939 -0.01176839 0.01013389
0.00605789 -0.01176881 0.01007922
0.00604300 -0.01176881 0.01002482
0.00601491 -0.01176964 0.00996985
0.00601321 -0.01176883 0.00991603
0.00599173 -0.01176924 0.00986135
0.00597683 -0.01176925 0.00980695
0.00596194 -0.01176925 0.00975255
0.00590575 -0.01177092 0.00964256
0.00587103 -0.01177215 0.00958726
0.00585614 -0.01177216 0.00953285
0.00555503 -0.01178539 0.00919632
0.00552686 -0.01178621 0.00914122
0.00551194 -0.01178622 0.00908675
0.00549704 -0.01178622 0.00903228
0.00546224 -0.01178747 0.00897684
0.00544070 -0.01178789 0.00892204
0.00541915 -0.01178831 0.00886723
0.00540423 -0.01178832 0.00881275
0.00538269 -0.01178873 0.00875794
0.00536114 -0.01178915 0.00870313
0.00533296 -0.01178998 0.00864798
0.00532468 -0.01178958 0.00859383
0.00530313 -0.01179000 0.00853900
0.00528821 -0.01179000 0.00848452
0.00527330 -0.01179001 0.00843003
0.00525671 -0.01178919 0.00832175
0.00609313 -0.01182552 0.01024290
0.00608484 -0.01182511 0.01018879
0.00608975 -0.01182388 0.01013524
0.00606826 -0.01182430 0.01008057
0.00604676 -0.01182472 0.01002589
0.00602527 -0.01182514 0.00997121
0.00602359 -0.01182432 0.00991740
0.00599548 -0.01182515 0.00986242
0.00598060 -0.01182516 0.00980803
0.00596569 -0.01182516 0.00975363
0.00594421 -0.01182558 0.00969894
0.00588802 -0.01182725 0.00958894
0.00587311 -0.01182725 0.00953454
0.00554557 -0.01184219 0.00919679
0.00551739 -0.01184303 0.00914169
0.00549586 -0.01184345 0.00908690
0.00547431 -0.01184387 0.00903210
0.00543952 -0.01184512 0.00897665
0.00541796 -0.01184554 0.00892185
0.00538979 -0.01184637 0.00886671
0.00538149 -0.01184596 0.00881255
0.00536658 -0.01184597 0.00875807
0.00533840 -0.01184681 0.00870292
0.00531685 -0.01184723 0.00864810
0.00530857 -0.01184682 0.00859395
-0.00234962 -0.01216307 -0.00121681
0.01192316 -0.01189813 0.03262154
0.01192749 -0.01189688 0.03256565
0.01192540 -0.01189606 0.03251024
0.01192331 -0.01189523 0.03245484
0.01191480 -0.01189482 0.03239991
0.01189572 -0.01189317 0.03223468
0.01197517 -0.01187745 0.03161900
0.01279958 -0.01160248 0.01877907
0.00609030 -0.01188184 0.01024368
0.00608860 -0.01188102 0.01018984
0.00608690 -0.01188019 0.01013602
0.00606541 -0.01188062 0.01008135
0.00605053 -0.01188062 0.01002696
0.00602902 -0.01188104 0.00997228
0.00602074 -0.01188063 0.00991818
0.00599925 -0.01188105 0.00986349
0.00597115 -0.01188189 0.00980852
0.00595626 -0.01188190 0.00975412
0.00594138 -0.01188190 0.00969972
0.00588517 -0.01188358 0.00958973
0.00586368 -0.01188400 0.00953502
0.00553609 -0.01189901 0.00919726
0.00550793 -0.01189984 0.00914215
0.00549302 -0.01189985 0.00908768
0.00546484 -0.01190069 0.00903257
0.00543003 -0.01190194 0.00897712
0.00540850 -0.01190237 0.00892231
0.00538695 -0.01190279 0.00886750
0.00537203 -0.01190280 0.00881301
0.00535712 -0.01190280 0.00875852
0.00533555 -0.01190322 0.00870370
0.00531401 -0.01190365 0.00864888
0.00447504 -0.01194886 0.00817519
0.00450689 -0.01194593 0.00812297
-0.00238672 -0.01222400 -0.00116489
-0.00236668 -0.01222181 -0.00121737
0.01196088 -0.01195285 0.03267491
0.01194596 -0.01195286 0.03262044
0.01193747 -0.01195245 0.03256550
0.01192898 -0.01195203 0.03251056
0.01192687 -0.01195120 0.03245515
0.01191837 -0.01195079 0.03240022
0.01190346 -0.01195080 0.03234576
0.01189496 -0.01195039 0.03229085
0.01189928 -0.01194914 0.03223501
0.01192282 -0.01194664 0.03217781
0.01192296 -0.01194373 0.03201132
0.01193367 -0.01194207 0.03195509
0.01195718 -0.01193957 0.03189798
0.01196149 -0.01193832 0.03184224
0.01195091 -0.01193708 0.03173210
0.01194242 -0.01193667 0.03167726
0.01195952 -0.01193459 0.03162067
0.01198302 -0.01193209 0.03156366
0.01279266 -0.01165872 0.01883303
0.01279680 -0.01165754 0.01877983
0.00610235 -0.01193816 0.01029886
0.00610065 -0.01193733 0.01024502
0.00609235 -0.01193692 0.01019091
0.00609066 -0.01193609 0.01013709
0.00607577 -0.01193610 0.01008270
0.00606088 -0.01193610 0.01002832
0.00602619 -0.01193736 0.00997307
0.00601791 -0.01193695 0.00991896
0.00598980 -0.01193779 0.00986399
0.00596832 -0.01193821 0.00980930
0.00595343 -0.01193822 0.00975490
0.00593193 -0.01193864 0.00970021
0.00587574 -0.01194032 0.00959021
0.00584762 -0.01194116 0.00953520
0.00584593 -0.01194033 0.00948140
0.00554651 -0.01195457 0.00919867
0.00552496 -0.01195499 0.00914389
0.00551005 -0.01195500 0.00908942
0.00548188 -0.01195584 0.00903431
0.00544046 -0.01195752 0.00897855
0.00541891 -0.01195794 0.00892374
0.00538410 -0.01195921 0.00886828
0.00537582 -0.01195879 0.00881412
0.00536090 -0.01195880 0.00875964
0.00533935 -0.01195922 0.00870482
0.00531116 -0.01196006 0.00864966
0.00445054 -0.01200591 0.00812094
0.00530477 -0.01193806 0.00736187
0.00533623 -0.01193515 0.00731012
-0.00237550 -0.01228099 -0.00116272
-0.00236253 -0.01227923 -0.00121588
0.01212354 -0.01123176 -0.00815704
0.01192194 -0.01200676 0.03240055
0.01190703 -0.01200677 0.03234609
0.01189853 -0.01200635 0.03229117
0.01190284 -0.01200510 0.03223533
0.01193279 -0.01200217 0.03217768
0.01192860 -0.01200050 0.03206699
0.01192011 -0.01200009 0.03201210
0.01193084 -0.01199841 0.03195588
