ply
format ascii 1.0
element vertex 1419
property float x
property float y
property float z
end_header
-0.00149770 0.01645821 0.04197399
-0.00150450 0.01645850 0.04203244
-0.00151131 0.01645880 0.04209091
-0.00152384 0.01645848 0.04214542
-0.00153065 0.01645878 0.04220389
-0.00152029 0.01646091 0.04227425
-0.00153282 0.01646060 0.04232877
-0.00156823 0.01645783 0.04236741
-0.00156932 0.01645874 0.04242986
0.00771828 0.01665791 0.00329811
0.00769970 0.01665697 0.00335003
0.00769320 0.01665728 0.00340729
0.00767460 0.01665634 0.00345921
0.00765604 0.01665540 0.00351112
0.00764349 0.01665509 0.00356571
0.00763094 0.01665477 0.00362030
0.00761840 0.01665445 0.00367489
0.00760585 0.01665414 0.00372948
0.00759332 0.01665382 0.00378407
0.00758077 0.01665350 0.00383866
0.00756823 0.01665318 0.00389325
0.00755568 0.01665287 0.00394784
0.00754313 0.01665255 0.00400242
0.00753058 0.01665223 0.00405701
0.00751804 0.01665192 0.00411160
0.00750551 0.01665160 0.00416619
0.00749296 0.01665128 0.00422078
0.00748041 0.01665097 0.00427537
0.00747389 0.01665127 0.00433267
0.00745532 0.01665033 0.00438455
0.00744879 0.01665064 0.00444185
0.00744228 0.01665094 0.00449915
0.00742973 0.01665062 0.00455375
0.00743528 0.01665217 0.00461650
0.00744683 0.01665433 0.00468197
0.00745237 0.01665588 0.00474474
0.00564572 0.01699391 0.03631363
0.00562058 0.01699228 0.03636198
-0.01193386 0.01514625 0.02607031
-0.01194550 0.01514596 0.02612097
-0.01195714 0.01514566 0.02617162
-0.01195879 0.01514643 0.02622864
-0.01196544 0.01514666 0.02628250
-0.01202695 0.01515237 0.02699887
-0.01184824 0.01519494 0.02857273
-0.01184990 0.01519571 0.02863011
-0.01184653 0.01519701 0.02869079
-0.01184317 0.01519832 0.02875146
-0.01184483 0.01519909 0.02880886
-0.01185150 0.01519933 0.02886298
-0.00141402 0.01640486 0.04165122
-0.00143225 0.01640393 0.04170179
-0.00144479 0.01640362 0.04175629
-0.00145160 0.01640391 0.04181474
-0.00146984 0.01640298 0.04186530
-0.00147665 0.01640328 0.04192375
-0.00148346 0.01640357 0.04198221
-0.00149027 0.01640387 0.04204068
-0.00149706 0.01640416 0.04209914
-0.00150959 0.01640385 0.04215365
-0.00151640 0.01640414 0.04221213
-0.00150605 0.01640627 0.04228251
-0.00151856 0.01640595 0.04233702
-0.00155398 0.01640319 0.04237567
-0.00155507 0.01640410 0.04243813
0.00772110 0.01660196 0.00329843
0.00770251 0.01660103 0.00335035
0.00769600 0.01660133 0.00340761
0.00767742 0.01660040 0.00345954
0.00766487 0.01660008 0.00351412
0.00764631 0.01659914 0.00356603
0.00763978 0.01659945 0.00362331
0.00762723 0.01659913 0.00367790
0.00761469 0.01659881 0.00373249
0.00760216 0.01659850 0.00378708
0.00758357 0.01659756 0.00383898
0.00757104 0.01659724 0.00389357
0.00755849 0.01659693 0.00394816
0.00754595 0.01659661 0.00400274
0.00753340 0.01659629 0.00405733
0.00752085 0.01659598 0.00411192
0.00751433 0.01659628 0.00416922
0.00750178 0.01659596 0.00422381
0.00748925 0.01659564 0.00427840
0.00747670 0.01659533 0.00433299
0.00746416 0.01659501 0.00438758
0.00745764 0.01659531 0.00444488
0.00745112 0.01659561 0.00450219
0.00743857 0.01659530 0.00455678
0.00745013 0.01659746 0.00462225
0.00745568 0.01659900 0.00468501
0.00745517 0.01659992 0.00474507
0.00564861 0.01693642 0.03631397
0.00561121 0.01693350 0.03635456
-0.01191795 0.01509388 0.02596294
-0.01191962 0.01509464 0.02601995
-0.01193126 0.01509434 0.02607061
-0.01194289 0.01509405 0.02612127
-0.01195453 0.01509376 0.02617192
-0.01196118 0.01509399 0.02622576
-0.01196283 0.01509475 0.02628279
-0.01197447 0.01509446 0.02633346
-0.01202434 0.01510043 0.02699917
-0.01186065 0.01514125 0.02856322
-0.01185730 0.01514255 0.02862386
-0.01185395 0.01514385 0.02868453
-0.01185058 0.01514515 0.02874520
-0.01184723 0.01514645 0.02880588
-0.01185389 0.01514668 0.02886001
-0.01185720 0.01514822 0.02897486
-0.00721359 0.01570260 0.03588767
-0.00140549 0.01634961 0.04165548
-0.00142373 0.01634869 0.04170605
-0.00143054 0.01634898 0.04176451
-0.00144307 0.01634866 0.04181901
-0.00145559 0.01634835 0.04187351
-0.00146240 0.01634864 0.04193198
-0.00147493 0.01634832 0.04198650
-0.00148173 0.01634862 0.04204496
-0.00148281 0.01634952 0.04210739
-0.00149533 0.01634920 0.04216190
-0.00150786 0.01634889 0.04221641
-0.00149751 0.01635101 0.04228679
-0.00151004 0.01635069 0.04234131
-0.00153974 0.01634854 0.04238393
-0.00155225 0.01634823 0.04243845
0.00771739 0.01654632 0.00335602
0.00770484 0.01654600 0.00341062
0.00768024 0.01654445 0.00345986
0.00766769 0.01654414 0.00351444
0.00765514 0.01654382 0.00356904
0.00764260 0.01654350 0.00362363
0.00763005 0.01654318 0.00367822
0.00761750 0.01654287 0.00373281
0.00760496 0.01654255 0.00378740
0.00759241 0.01654223 0.00384199
0.00757986 0.01654192 0.00389658
0.00756733 0.01654160 0.00395118
0.00755478 0.01654128 0.00400577
0.00754224 0.01654097 0.00406035
0.00752969 0.01654065 0.00411495
0.00751714 0.01654033 0.00416954
0.00750460 0.01654002 0.00422413
0.00749809 0.01654032 0.00428143
0.00748554 0.01654000 0.00433602
0.00747299 0.01653969 0.00439061
0.00746647 0.01653998 0.00444791
0.00745995 0.01654029 0.00450523
0.00745344 0.01654058 0.00456254
0.00746500 0.01654274 0.00462801
0.00745849 0.01654303 0.00468533
-0.01194029 0.01504214 0.02612156
-0.01195192 0.01504185 0.02617221
-0.01195857 0.01504208 0.02622606
-0.01196022 0.01504284 0.02628309
-0.01197186 0.01504254 0.02633376
-0.01198848 0.01504453 0.02655558
-0.01200013 0.01504423 0.02660624
-0.01202174 0.01504849 0.02699947
-0.01184800 0.01509022 0.02857006
-0.01184967 0.01509099 0.02862744
-0.01184630 0.01509228 0.02868810
-0.01184797 0.01509305 0.02874549
-0.01184461 0.01509434 0.02880618
-0.01185127 0.01509457 0.02886031
-0.01186296 0.01509428 0.02891116
-0.01186462 0.01509504 0.02896858
-0.01187630 0.01509475 0.02901944
-0.00721622 0.01564818 0.03588436
-0.00139123 0.01629497 0.04166370
-0.00140949 0.01629404 0.04171427
-0.00142202 0.01629373 0.04176877
-0.00142881 0.01629402 0.04182723
-0.00144134 0.01629370 0.04188175
-0.00145388 0.01629339 0.04193626
-0.00146069 0.01629368 0.04199471
-0.00146748 0.01629397 0.04205319
-0.00147429 0.01629426 0.04211167
-0.00148681 0.01629395 0.04216618
-0.00149934 0.01629363 0.04222070
-0.00148898 0.01629574 0.04229107
-0.00149579 0.01629604 0.04234958
-0.00153121 0.01629329 0.04238822
-0.00154375 0.01629297 0.04244274
0.00772020 0.01649037 0.00335634
0.00771371 0.01649067 0.00341362
0.00768909 0.01648912 0.00346285
0.00767654 0.01648881 0.00351745
0.00766400 0.01648849 0.00357204
0.00765145 0.01648817 0.00362663
0.00763890 0.01648786 0.00368122
0.00762635 0.01648754 0.00373582
0.00761381 0.01648722 0.00379041
0.00760126 0.01648691 0.00384501
0.00758871 0.01648659 0.00389960
0.00757617 0.01648627 0.00395419
0.00756364 0.01648596 0.00400878
0.00755109 0.01648564 0.00406338
0.00753854 0.01648532 0.00411797
0.00753202 0.01648562 0.00417526
0.00751947 0.01648530 0.00422986
0.00750692 0.01648499 0.00428445
0.00750041 0.01648529 0.00434176
0.00748786 0.01648497 0.00439636
0.00748135 0.01648527 0.00445367
0.00747482 0.01648556 0.00451098
0.00747433 0.01648648 0.00457101
0.00747986 0.01648801 0.00463376
0.00747335 0.01648831 0.00469109
0.00565439 0.01682144 0.03631462
0.00561698 0.01681854 0.03635521
-0.01190776 0.01499059 0.02596672
-0.01191939 0.01499030 0.02601737
-0.01192604 0.01499053 0.02607121
-0.01193768 0.01499024 0.02612186
-0.01194932 0.01498994 0.02617251
-0.01195596 0.01499017 0.02622636
-0.01196261 0.01499040 0.02628020
-0.01197425 0.01499011 0.02633086
-0.01196757 0.01499267 0.02645133
-0.01197922 0.01499237 0.02650201
-0.01199086 0.01499208 0.02655267
-0.01200251 0.01499178 0.02660333
-0.01200916 0.01499201 0.02665721
-0.01201580 0.01499225 0.02671108
-0.01201913 0.01499655 0.02699976
-0.01184204 0.01503942 0.02863101
-0.01184370 0.01504018 0.02868839
-0.01184033 0.01504147 0.02874908
-0.01184198 0.01504223 0.02880648
-0.01186702 0.01504240 0.02896559
-0.01187369 0.01504264 0.02901974
-0.01189040 0.01504181 0.02906729
-0.00140096 0.01623879 0.04171853
-0.00140776 0.01623908 0.04177698
-0.00141455 0.01623937 0.04183545
-0.00143282 0.01623845 0.04188601
-0.00143962 0.01623874 0.04194448
-0.00145213 0.01623842 0.04199899
-0.00145894 0.01623871 0.04205747
-0.00146575 0.01623900 0.04211595
-0.00147828 0.01623868 0.04217046
-0.00149082 0.01623837 0.04222498
-0.00148045 0.01624047 0.04229536
-0.00149298 0.01624016 0.04234990
-0.00152268 0.01623803 0.04239251
-0.00153521 0.01623771 0.04244703
0.00772256 0.01643534 0.00341662
0.00769792 0.01643379 0.00346585
0.00769141 0.01643409 0.00352313
0.00767283 0.01643316 0.00357504
0.00766028 0.01643284 0.00362964
0.00764774 0.01643252 0.00368424
0.00763519 0.01643221 0.00373883
0.00762264 0.01643189 0.00379342
0.00761010 0.01643157 0.00384802
0.00759755 0.01643126 0.00390261
0.00758500 0.01643094 0.00395720
0.00757246 0.01643062 0.00401180
0.00755991 0.01643031 0.00406640
0.00754738 0.01642999 0.00412099
0.00754087 0.01643028 0.00417829
0.00752832 0.01642997 0.00423289
0.00751577 0.01642965 0.00428748
0.00750926 0.01642995 0.00434479
0.00749671 0.01642963 0.00439939
0.00749622 0.01643054 0.00445941
0.00748368 0.01643023 0.00451401
0.00748317 0.01643113 0.00457405
0.00748268 0.01643204 0.00463408
0.00747617 0.01643234 0.00469142
-0.01192842 0.01493810 0.02606832
-0.01194006 0.01493780 0.02611897
-0.01194671 0.01493803 0.02617281
-0.01195335 0.01493826 0.02622665
-0.01196000 0.01493849 0.02628050
-0.01197164 0.01493820 0.02633116
-0.01197331 0.01493895 0.02638820
-0.01196997 0.01494022 0.02644845
-0.01198161 0.01493993 0.02649911
-0.01199324 0.01493963 0.02654977
-0.01200490 0.01493934 0.02660044
-0.01201154 0.01493957 0.02665430
-0.01201320 0.01494032 0.02671138
-0.01201651 0.01494461 0.02700006
-0.01184444 0.01498680 0.02862804
-0.01184107 0.01498808 0.02868870
-0.01184273 0.01498884 0.02874609
-0.01184438 0.01498960 0.02880351
-0.01185106 0.01498983 0.02885763
-0.01186274 0.01498954 0.02890848
-0.01186940 0.01498977 0.02896260
-0.01187609 0.01499000 0.02901674
-0.01188777 0.01498970 0.02906759
-0.01189946 0.01498941 0.02911844
-0.00139350 0.01618442 0.04178520
-0.00140603 0.01618411 0.04183972
-0.00141856 0.01618379 0.04189423
-0.00143108 0.01618348 0.04194875
-0.00144361 0.01618316 0.04200327
-0.00145042 0.01618345 0.04206175
-0.00145721 0.01618373 0.04212023
-0.00147548 0.01618281 0.04217079
-0.00148228 0.01618310 0.04222927
-0.00147764 0.01618460 0.04229568
-0.00149018 0.01618428 0.04235022
-0.00151415 0.01618276 0.04239679
-0.00153239 0.01618184 0.04244735
-0.00157924 0.01617790 0.04247803
0.00771932 0.01637877 0.00341426
0.00770074 0.01637784 0.00346617
0.00769423 0.01637814 0.00352345
0.00768168 0.01637782 0.00357805
0.00766914 0.01637750 0.00363265
0.00765659 0.01637719 0.00368725
0.00764404 0.01637687 0.00374185
0.00763150 0.01637655 0.00379644
0.00761895 0.01637624 0.00385103
0.00760037 0.01637531 0.00390293
0.00759386 0.01637561 0.00396023
0.00758131 0.01637529 0.00401483
0.00756876 0.01637497 0.00406942
0.00755621 0.01637466 0.00412402
0.00754972 0.01637495 0.00418132
0.00753112 0.01637402 0.00423321
0.00752462 0.01637432 0.00429051
0.00751810 0.01637461 0.00434782
0.00750554 0.01637429 0.00440242
0.00750506 0.01637520 0.00446244
0.00749250 0.01637488 0.00451705
0.00749202 0.01637579 0.00457709
0.00749153 0.01637669 0.00463713
0.00747898 0.01637638 0.00469174
-0.01190752 0.01488626 0.02596414
-0.01191418 0.01488648 0.02601796
-0.01192582 0.01488619 0.02606862
-0.01193745 0.01488590 0.02611927
-0.01194909 0.01488560 0.02616992
-0.01195075 0.01488635 0.02622695
-0.01196238 0.01488606 0.02627761
-0.01197402 0.01488576 0.02632826
-0.01197568 0.01488651 0.02638531
-0.01197235 0.01488778 0.02644555
-0.01198898 0.01488697 0.02649301
-0.01199563 0.01488719 0.02654687
-0.01200728 0.01488690 0.02659754
-0.01201393 0.01488713 0.02665140
-0.01201558 0.01488788 0.02670848
-0.01203221 0.01488706 0.02675593
-0.01201390 0.01489266 0.02700036
-0.00301577 0.01585224 0.03402210
-0.01185183 0.01493366 0.02862179
-0.01184848 0.01493493 0.02868245
-0.01185013 0.01493569 0.02873984
-0.01184678 0.01493697 0.02880052
-0.01184843 0.01493772 0.02885793
-0.01186514 0.01493690 0.02890550
-0.01186679 0.01493766 0.02896291
-0.01187848 0.01493736 0.02901376
-0.01189016 0.01493707 0.02906461
-0.00139751 0.01612884 0.04184400
-0.00141002 0.01612853 0.04189852
-0.00142255 0.01612821 0.04195303
-0.00143509 0.01612790 0.04200755
-0.00144188 0.01612818 0.04206603
-0.00145441 0.01612787 0.04212055
-0.00146694 0.01612755 0.04217508
-0.00147946 0.01612723 0.04222959
-0.00148165 0.01612901 0.04235450
-0.00151134 0.01612688 0.04239712
-0.00152959 0.01612597 0.04244767
-0.00157072 0.01612264 0.04248233
0.00772214 0.01632283 0.00341458
0.00770959 0.01632251 0.00346918
0.00770308 0.01632280 0.00352645
0.00768450 0.01632188 0.00357837
0.00767799 0.01632217 0.00363565
0.00766544 0.01632185 0.00369025
0.00764686 0.01632092 0.00374217
0.00763431 0.01632060 0.00379676
0.00762177 0.01632029 0.00385135
0.00760922 0.01631997 0.00390595
0.00759667 0.01631965 0.00396055
0.00758412 0.01631934 0.00401515
0.00757158 0.01631902 0.00406974
0.00755903 0.01631870 0.00412434
0.00755252 0.01631900 0.00418164
0.00753997 0.01631868 0.00423624
0.00753345 0.01631897 0.00429354
0.00752693 0.01631927 0.00435085
0.00751439 0.01631895 0.00440545
0.00751390 0.01631985 0.00446548
0.00750135 0.01631954 0.00452008
0.00749484 0.01631983 0.00457741
0.00749433 0.01632073 0.00463745
0.00748178 0.01632041 0.00469206
-0.01191655 0.01483406 0.02601509
-0.01192819 0.01483376 0.02606574
-0.01193485 0.01483399 0.02611957
-0.01194648 0.01483370 0.02617022
-0.01195313 0.01483392 0.02622406
-0.01195978 0.01483415 0.02627791
-0.01197141 0.01483385 0.02632856
-0.01197806 0.01483408 0.02638241
-0.01197973 0.01483482 0.02643945
-0.01199137 0.01483453 0.02649011
-0.01200300 0.01483424 0.02654078
-0.01201466 0.01483394 0.02659143
-0.01202130 0.01483417 0.02664529
-0.01202296 0.01483491 0.02670237
-0.01203460 0.01483462 0.02675303
-0.01202793 0.01483715 0.02687361
-0.01201129 0.01484072 0.02700066
-0.01185425 0.01488104 0.02861881
-0.01185089 0.01488231 0.02867948
-0.01184753 0.01488359 0.02874014
-0.01184918 0.01488434 0.02879754
-0.01185083 0.01488509 0.02885495
-0.01186252 0.01488480 0.02890579
-0.01186919 0.01488502 0.02895992
-0.01187585 0.01488525 0.02901406
-0.01188754 0.01488496 0.02906491
-0.00138897 0.01607358 0.04184827
-0.00140148 0.01607326 0.04190279
-0.00141402 0.01607294 0.04195731
-0.00142655 0.01607263 0.04201183
-0.00143908 0.01607231 0.04206635
-0.00144589 0.01607259 0.04212484
-0.00146413 0.01607168 0.04217540
0.00773703 0.01626809 0.00342026
0.00771844 0.01626717 0.00347218
0.00771797 0.01626807 0.00353214
0.00769937 0.01626714 0.00358406
0.00768682 0.01626682 0.00363865
0.00767428 0.01626651 0.00369326
0.00765571 0.01626558 0.00374517
0.00764316 0.01626527 0.00379977
0.00763062 0.01626495 0.00385437
0.00761203 0.01626402 0.00390627
0.00759949 0.01626370 0.00396087
0.00758694 0.01626339 0.00401547
0.00757439 0.01626307 0.00407006
0.00756185 0.01626275 0.00412466
0.00755534 0.01626305 0.00418196
0.00754279 0.01626273 0.00423656
0.00754230 0.01626363 0.00429657
0.00753577 0.01626392 0.00435387
0.00752322 0.01626360 0.00440848
0.00751671 0.01626389 0.00446580
0.00750417 0.01626358 0.00452040
0.00749765 0.01626387 0.00457773
0.00749111 0.01626416 0.00463505
0.00747856 0.01626384 0.00468966
-0.01188236 0.01478178 0.02580325
-0.01188901 0.01478200 0.02585708
-0.01192558 0.01478186 0.02606604
-0.01193722 0.01478157 0.02611668
-0.01194885 0.01478127 0.02616733
-0.01195551 0.01478150 0.02622117
-0.01196216 0.01478172 0.02627502
-0.01197380 0.01478143 0.02632566
-0.01198044 0.01478165 0.02637952
-0.01198210 0.01478239 0.02643656
-0.01199374 0.01478210 0.02648722
-0.01200537 0.01478180 0.02653788
-0.01201703 0.01478151 0.02658853
-0.01202369 0.01478173 0.02664239
-0.01202534 0.01478248 0.02669945
-0.01203698 0.01478218 0.02675012
-0.01202866 0.01478396 0.02681361
-0.01202533 0.01478522 0.02687391
-0.01201200 0.01478752 0.02694064
-0.01200868 0.01478878 0.02700096
-0.01185328 0.01482970 0.02867649
-0.01184992 0.01483097 0.02873716
-0.01184656 0.01483224 0.02879784
-0.01184821 0.01483299 0.02885525
-0.00140549 0.01601767 0.04196159
-0.00141802 0.01601735 0.04201610
-0.00143054 0.01601704 0.04207063
-0.00144307 0.01601672 0.04212516
-0.00145561 0.01601641 0.04217967
0.00773935 0.01621303 0.00348054
0.00773285 0.01621332 0.00353782
0.00770824 0.01621179 0.00358706
0.00770171 0.01621208 0.00364435
0.00768916 0.01621177 0.00369895
0.00767662 0.01621145 0.00375356
0.00765803 0.01621053 0.00380547
0.00763945 0.01620960 0.00385738
0.00762691 0.01620929 0.00391199
0.00761436 0.01620897 0.00396658
0.00760181 0.01620865 0.00402118
0.00758325 0.01620773 0.00407308
0.00757672 0.01620802 0.00413039
0.00757021 0.01620831 0.00418769
0.00755766 0.01620799 0.00424229
0.00755113 0.01620828 0.00429960
0.00754462 0.01620857 0.00435691
0.00753811 0.01620886 0.00441423
0.00753158 0.01620915 0.00447154
0.00751300 0.01620822 0.00452344
0.00750647 0.01620851 0.00458076
0.00749393 0.01620819 0.00463537
-0.01187976 0.01472988 0.02580355
-0.01191133 0.01473025 0.02601568
-0.01192297 0.01472996 0.02606633
-0.01193461 0.01472966 0.02611698
-0.01194127 0.01472988 0.02617081
-0.01194791 0.01473011 0.02622466
-0.01195955 0.01472981 0.02627531
-0.01196620 0.01473004 0.02632915
-0.01197784 0.01472974 0.02637982
-0.01197949 0.01473048 0.02643687
-0.01199113 0.01473019 0.02648752
-0.01200277 0.01472989 0.02653819
-0.01201442 0.01472960 0.02658883
-0.01202108 0.01472982 0.02664269
-0.01202273 0.01473056 0.02669975
-0.01203437 0.01473026 0.02675042
-0.01202606 0.01473204 0.02681391
-0.01202272 0.01473329 0.02687421
-0.01201440 0.01473507 0.02693772
-0.01201107 0.01473632 0.02699804
-0.01185231 0.01477835 0.02873418
-0.01184894 0.01477962 0.02879486
-0.00247779 0.01584481 0.04090536
0.00774170 0.01615797 0.00354083
0.00772311 0.01615705 0.00359275
0.00771056 0.01615673 0.00364736
0.00769801 0.01615641 0.00370196
0.00767943 0.01615549 0.00375388
0.00766687 0.01615518 0.00380848
0.00764830 0.01615426 0.00386039
0.00762972 0.01615334 0.00391231
0.00762321 0.01615362 0.00396960
0.00760463 0.01615270 0.00402150
0.00759208 0.01615238 0.00407610
0.00757952 0.01615207 0.00413071
0.00757904 0.01615296 0.00419071
0.00756650 0.01615264 0.00424531
0.00755998 0.01615293 0.00430263
0.00755347 0.01615321 0.00435994
0.00754695 0.01615350 0.00441726
0.00754042 0.01615379 0.00447458
0.00752184 0.01615287 0.00452647
0.00750929 0.01615255 0.00458109
0.00749674 0.01615223 0.00463569
-0.01187216 0.01467849 0.02580703
-0.01187380 0.01467923 0.02586403
-0.01188545 0.01467893 0.02591468
-0.01189709 0.01467864 0.02596533
-0.01190373 0.01467886 0.02601916
-0.01191539 0.01467856 0.02606981
-0.01192702 0.01467827 0.02612046
-0.01193866 0.01467798 0.02617111
-0.01194531 0.01467820 0.02622496
-0.01195195 0.01467842 0.02627880
-0.01196359 0.01467813 0.02632945
-0.01197024 0.01467835 0.02638330
-0.01197191 0.01467908 0.02644034
-0.01198354 0.01467879 0.02649101
-0.01199518 0.01467849 0.02654167
-0.01200682 0.01467820 0.02659232
-0.01201347 0.01467842 0.02664618
-0.01201513 0.01467916 0.02670326
-0.01202677 0.01467886 0.02675392
-0.01202343 0.01468011 0.02681421
-0.01202011 0.01468136 0.02687450
-0.01201178 0.01468313 0.02693802
-0.01200844 0.01468438 0.02699834
-0.01201510 0.01468460 0.02705224
0.00775054 0.01610261 0.00354382
0.00773799 0.01610229 0.00359844
0.00772545 0.01610197 0.00365304
0.00770687 0.01610106 0.00370497
0.00769432 0.01610074 0.00375958
0.00767572 0.01609982 0.00381149
0.00766318 0.01609951 0.00386610
0.00764459 0.01609858 0.00391801
0.00763205 0.01609827 0.00397261
0.00761950 0.01609795 0.00402722
0.00760695 0.01609764 0.00408182
0.00759441 0.01609732 0.00413643
0.00759393 0.01609821 0.00419644
0.00758138 0.01609789 0.00425105
0.00757486 0.01609818 0.00430836
0.00756229 0.01609785 0.00436297
0.00755578 0.01609814 0.00442030
0.00754927 0.01609843 0.00447761
0.00753069 0.01609751 0.00452951
0.00751814 0.01609719 0.00458413
0.00750558 0.01609688 0.00463874
-0.01186456 0.01462710 0.02581050
-0.01187119 0.01462732 0.02586433
-0.01187785 0.01462754 0.02591816
-0.01188949 0.01462725 0.02596880
-0.01190113 0.01462695 0.02601945
-0.01190777 0.01462717 0.02607329
-0.01191941 0.01462688 0.02612395
-0.01193105 0.01462658 0.02617460
-0.01193769 0.01462680 0.02622844
-0.01194434 0.01462702 0.02628229
-0.01195598 0.01462673 0.02633294
-0.01196262 0.01462695 0.02638680
-0.01196429 0.01462768 0.02644385
-0.01197594 0.01462739 0.02649450
-0.01198758 0.01462709 0.02654517
-0.01199922 0.01462680 0.02659582
-0.01200587 0.01462702 0.02664968
-0.01200752 0.01462775 0.02670676
-0.01201917 0.01462746 0.02675743
-0.01202083 0.01462819 0.02681451
-0.01201750 0.01462944 0.02687480
-0.01201417 0.01463068 0.02693511
-0.01201083 0.01463193 0.02699543
-0.01201749 0.01463215 0.02704933
0.00776544 0.01604785 0.00354952
0.00774685 0.01604693 0.00360145
0.00773430 0.01604661 0.00365605
0.00771570 0.01604570 0.00370798
0.00770316 0.01604538 0.00376258
0.00769061 0.01604506 0.00381719
0.00767203 0.01604415 0.00386912
0.00765345 0.01604323 0.00392102
0.00764693 0.01604351 0.00397833
0.00762835 0.01604259 0.00403024
0.00761580 0.01604228 0.00408484
0.00760929 0.01604256 0.00414216
0.00760880 0.01604344 0.00420216
0.00759625 0.01604313 0.00425678
0.00758974 0.01604341 0.00431409
0.00757718 0.01604310 0.00436871
0.00757067 0.01604338 0.00442604
0.00755812 0.01604306 0.00448065
0.00753954 0.01604214 0.00453255
0.00752698 0.01604183 0.00458717
0.00751443 0.01604151 0.00464178
0.01305260 0.01684431 0.02339105
0.00508922 0.01611560 0.02394221
-0.01186360 0.01457593 0.02586780
-0.01187025 0.01457615 0.02592163
-0.01188189 0.01457585 0.02597228
-0.01189353 0.01457556 0.02602293
-0.01190516 0.01457526 0.02607359
-0.01191680 0.01457497 0.02612425
-0.01192345 0.01457519 0.02617808
-0.01193009 0.01457540 0.02623193
-0.01193674 0.01457562 0.02628578
-0.01194838 0.01457533 0.02633645
-0.01195504 0.01457555 0.02639028
-0.01196168 0.01457576 0.02644414
-0.01197334 0.01457547 0.02649480
-0.01198497 0.01457518 0.02654546
-0.01199162 0.01457539 0.02659933
-0.01200326 0.01457510 0.02664998
-0.01200491 0.01457583 0.02670705
-0.01201656 0.01457553 0.02675772
-0.01201822 0.01457626 0.02681480
-0.01201490 0.01457751 0.02687510
-0.01201156 0.01457875 0.02693541
-0.01201321 0.01457948 0.02699251
-0.01201987 0.01457970 0.02704641
-0.01203650 0.01457889 0.02709388
-0.00248751 0.01567740 0.04095658
-0.01668246 0.01434686 0.03989689
-0.01669399 0.01434657 0.03994711
0.00776175 0.01599216 0.00360713
0.00774315 0.01599125 0.00365906
0.00773060 0.01599093 0.00371367
0.00771806 0.01599061 0.00376829
0.00769946 0.01598970 0.00382021
0.00768086 0.01598878 0.00387213
0.00766230 0.01598787 0.00392404
0.00765577 0.01598815 0.00398134
0.00764322 0.01598783 0.00403596
0.00762464 0.01598692 0.00408787
0.00762416 0.01598780 0.00414787
0.00761765 0.01598808 0.00420519
0.00760509 0.01598776 0.00425981
0.00759858 0.01598804 0.00431713
0.00758603 0.01598773 0.00437174
0.00757952 0.01598801 0.00442907
0.00756697 0.01598769 0.00448368
0.01305555 0.01678558 0.02339139
0.00515415 0.01606246 0.02379061
0.00512943 0.01606092 0.02383899
0.00511676 0.01606060 0.02389416
0.00509807 0.01605968 0.02394593
0.00508539 0.01605936 0.02400109
0.00507872 0.01605964 0.02405965
-0.01186100 0.01452402 0.02586810
-0.01186763 0.01452424 0.02592193
-0.01187928 0.01452394 0.02597258
-0.01189092 0.01452365 0.02602323
-0.01190256 0.01452336 0.02607389
-0.01191419 0.01452306 0.02612454
-0.01192084 0.01452328 0.02617838
-0.01192749 0.01452349 0.02623223
-0.01193912 0.01452320 0.02628288
-0.01194577 0.01452342 0.02633674
-0.01195741 0.01452312 0.02638740
-0.01195908 0.01452385 0.02644444
-0.01197572 0.01452304 0.02649190
-0.01198237 0.01452326 0.02654576
-0.01199400 0.01452297 0.02659642
-0.01200065 0.01452318 0.02665028
-0.01200730 0.01452340 0.02670415
-0.01201396 0.01452362 0.02675802
-0.01201561 0.01452434 0.02681510
-0.01201227 0.01452558 0.02687540
-0.01201893 0.01452579 0.02692929
-0.01201561 0.01452703 0.02698959
-0.01202725 0.01452674 0.02704027
-0.01203890 0.01452644 0.02709096
-0.00246097 0.01562337 0.04091053
-0.00247908 0.01562248 0.04096080
-0.01667987 0.01429540 0.03989719
-0.01669142 0.01429511 0.03994741
-0.01670295 0.01429482 0.03999763
0.00513829 0.01600499 0.02384271
0.00512561 0.01600468 0.02389788
0.00510691 0.01600375 0.02394965
0.00509425 0.01600343 0.02400482
0.00508757 0.01600372 0.02406338
-0.01185173 0.01447190 0.02581458
-0.01185839 0.01447211 0.02586839
-0.01187003 0.01447182 0.02591905
-0.01187667 0.01447203 0.02597288
-0.01188831 0.01447174 0.02602354
-0.01189995 0.01447145 0.02607419
-0.01191159 0.01447115 0.02612484
-0.01191823 0.01447137 0.02617868
-0.01192488 0.01447158 0.02623253
-0.01193652 0.01447129 0.02628318
-0.01194316 0.01447150 0.02633704
-0.01195480 0.01447121 0.02638770
-0.01196146 0.01447142 0.02644154
-0.01197310 0.01447113 0.02649221
-0.01198475 0.01447084 0.02654287
-0.01199140 0.01447105 0.02659672
-0.01199804 0.01447126 0.02665058
-0.01200469 0.01447148 0.02670445
-0.01201634 0.01447119 0.02675512
-0.01201800 0.01447191 0.02681220
-0.01201466 0.01447314 0.02687249
-0.01202132 0.01447336 0.02692637
-0.01202297 0.01447408 0.02698347
-0.01202963 0.01447429 0.02703736
-0.01204127 0.01447400 0.02708804
-0.00700887 0.01507298 0.03594741
-0.00245818 0.01556787 0.04091085
-0.00247629 0.01556697 0.04096112
-0.01662728 0.01424821 0.03987590
-0.01668882 0.01424365 0.03994770
-0.01670037 0.01424336 0.03999793
0.00510310 0.01594750 0.02400853
-0.01184912 0.01442000 0.02581488
-0.01185578 0.01442021 0.02586869
-0.01186742 0.01441991 0.02591935
-0.01187906 0.01441962 0.02597000
-0.01188570 0.01441983 0.02602383
-0.01189734 0.01441954 0.02607449
-0.01190898 0.01441925 0.02612514
-0.01191562 0.01441946 0.02617898
-0.01192227 0.01441967 0.02623282
-0.01193391 0.01441938 0.02628348
-0.01194555 0.01441908 0.02633414
-0.01195219 0.01441930 0.02638800
-0.01195885 0.01441951 0.02644184
-0.01197548 0.01441871 0.02648931
-0.01198712 0.01441841 0.02653997
-0.01199378 0.01441863 0.02659382
-0.01200043 0.01441884 0.02664767
-0.01200707 0.01441905 0.02670154
-0.01201372 0.01441926 0.02675541
-0.01201539 0.01441999 0.02681250
-0.01201704 0.01442071 0.02686958
-0.01201871 0.01442143 0.02692667
-0.01202036 0.01442215 0.02698378
-0.01203202 0.01442185 0.02703445
-0.01204365 0.01442156 0.02708513
-0.01304115 0.01436634 0.02946044
-0.00246784 0.01551205 0.04096533
-0.01662470 0.01419674 0.03987620
-0.01668625 0.01419219 0.03994799
-0.01669778 0.01419190 0.03999822
0.01419485 0.01654209 0.01217130
-0.01184817 0.01436881 0.02587217
-0.01185980 0.01436851 0.02592283
-0.01187144 0.01436822 0.02597348
-0.01188309 0.01436793 0.02602413
-0.01188973 0.01436814 0.02607797
-0.01190138 0.01436784 0.02612863
-0.01190801 0.01436805 0.02618247
-0.01191966 0.01436776 0.02623312
-0.01193130 0.01436747 0.02628378
-0.01193795 0.01436768 0.02633764
-0.01194958 0.01436738 0.02638829
-0.01195624 0.01436759 0.02644214
-0.01196788 0.01436730 0.02649280
-0.01197954 0.01436701 0.02654347
-0.01198618 0.01436722 0.02659731
-0.01199782 0.01436692 0.02664797
-0.01199947 0.01436764 0.02670505
-0.01201111 0.01436735 0.02675571
-0.01201278 0.01436806 0.02681280
-0.01201443 0.01436878 0.02686988
-0.01202108 0.01436899 0.02692376
-0.01202275 0.01436971 0.02698085
-0.01202941 0.01436992 0.02703474
-0.01204105 0.01436962 0.02708542
-0.00884271 0.01478439 0.03512221
-0.00885467 0.01478409 0.03517427
-0.00887185 0.01478325 0.03522276
-0.00889206 0.01478394 0.03538962
-0.01660770 0.01414675 0.03988724
-0.01669520 0.01414044 0.03999852
0.01421732 0.01648569 0.01218092
-0.01184556 0.01431690 0.02587247
-0.01185720 0.01431660 0.02592313
-0.01186883 0.01431631 0.02597377
-0.01187548 0.01431652 0.02602761
-0.01188712 0.01431623 0.02607827
-0.01189877 0.01431593 0.02612893
-0.01191041 0.01431564 0.02617957
-0.01191705 0.01431585 0.02623342
-0.01192869 0.01431556 0.02628408
-0.01194033 0.01431526 0.02633473
-0.01194698 0.01431547 0.02638859
-0.01195861 0.01431518 0.02643925
-0.01197025 0.01431488 0.02648991
-0.01198190 0.01431459 0.02654057
-0.01198857 0.01431480 0.02659442
-0.01200020 0.01431450 0.02664508
-0.01200186 0.01431522 0.02670214
-0.01201349 0.01431492 0.02675280
-0.01201515 0.01431564 0.02680988
-0.01201682 0.01431635 0.02686697
-0.01202346 0.01431656 0.02692084
-0.01202014 0.01431778 0.02698115
-0.01203178 0.01431748 0.02703183
-0.00881611 0.01473165 0.03501841
-0.00883852 0.01473028 0.03506335
-0.00884525 0.01473051 0.03511897
-0.00885721 0.01473021 0.03517102
-0.00886917 0.01472991 0.03522307
-0.00887743 0.01473090 0.03533787
-0.00889984 0.01472953 0.03538279
-0.00891702 0.01472870 0.03543129
-0.01153125 0.01455284 0.03955615
-0.01659550 0.01409625 0.03989469
-0.01668106 0.01408927 0.03994859
-0.01669261 0.01408898 0.03999881
0.01439011 0.01643641 0.01175675
0.01436399 0.01643480 0.01180752
0.01433133 0.01643255 0.01185519
0.01431173 0.01643158 0.01190903
0.01422676 0.01642801 0.01218435
0.01420717 0.01642704 0.01223817
-0.01184295 0.01426499 0.02587277
-0.01185459 0.01426470 0.02592342
-0.01186623 0.01426440 0.02597407
-0.01187786 0.01426411 0.02602473
-0.01188451 0.01426432 0.02607857
-0.01189615 0.01426402 0.02612922
-0.01190780 0.01426373 0.02617987
-0.01191443 0.01426394 0.02623372
-0.01193108 0.01426314 0.02628119
-0.01193772 0.01426335 0.02633503
-0.01194936 0.01426306 0.02638569
-0.01196100 0.01426276 0.02643634
-0.01197264 0.01426247 0.02648700
-0.01198429 0.01426217 0.02653766
-0.01199093 0.01426238 0.02659152
-0.01199760 0.01426259 0.02664538
-0.01200424 0.01426280 0.02669923
-0.01201089 0.01426300 0.02675310
-0.01201254 0.01426371 0.02681018
-0.01201421 0.01426443 0.02686727
-0.01202585 0.01426413 0.02691793
-0.00883584 0.01467694 0.03506365
-0.00884257 0.01467717 0.03511927
-0.00885452 0.01467687 0.03517132
-0.00886649 0.01467657 0.03522337
-0.00887845 0.01467626 0.03527543
-0.00887474 0.01467755 0.03533818
-0.00889717 0.01467619 0.03538310
-0.00891957 0.01467483 0.03542802
-0.01152350 0.01450048 0.03956012
-0.01660252 0.01404379 0.03988783
-0.01666695 0.01403810 0.03989866
-0.01667848 0.01403781 0.03994888
-0.01669002 0.01403752 0.03999911
-0.01670156 0.01403723 0.04004931
0.01436691 0.01637646 0.01180785
0.01434079 0.01637486 0.01185860
0.01432118 0.01637389 0.01191245
0.01423623 0.01637032 0.01218778
-0.01184034 0.01421308 0.02587306
-0.01185198 0.01421279 0.02592372
-0.01186362 0.01421250 0.02597437
-0.01187526 0.01421220 0.02602503
-0.01188190 0.01421241 0.02607886
-0.01189354 0.01421211 0.02612952
-0.01190519 0.01421182 0.02618017
-0.01191182 0.01421203 0.02623402
-0.01192847 0.01421123 0.02628148
-0.01193511 0.01421144 0.02633533
-0.01194675 0.01421115 0.02638599
-0.01195839 0.01421085 0.02643664
-0.01197003 0.01421056 0.02648730
-0.01198168 0.01421026 0.02653795
-0.01198833 0.01421047 0.02659182
-0.01199499 0.01421067 0.02664568
-0.01200163 0.01421088 0.02669954
-0.01201327 0.01421059 0.02675020
-0.01201493 0.01421129 0.02680727
-0.01201659 0.01421200 0.02686436
-0.01202324 0.01421221 0.02691823
-0.00883839 0.01462307 0.03506041
-0.00884512 0.01462330 0.03511602
-0.00885186 0.01462353 0.03517163
-0.00886904 0.01462269 0.03522012
-0.00887206 0.01462420 0.03533848
-0.00889449 0.01462284 0.03538340
-0.01151575 0.01444812 0.03956409
-0.01659031 0.01399329 0.03989529
-0.01666436 0.01398664 0.03989896
-0.01667589 0.01398635 0.03994918
-0.01668744 0.01398606 0.03999940
-0.01669897 0.01398577 0.04004961
0.00419757 0.01545725 0.01568501
-0.01183774 0.01416117 0.02587336
-0.01184438 0.01416138 0.02592720
-0.01186101 0.01416059 0.02597467
-0.01186766 0.01416079 0.02602851
-0.01187930 0.01416050 0.02607916
-0.01189093 0.01416020 0.02612982
-0.01190257 0.01415991 0.02618047
-0.01190922 0.01416011 0.02623431
-0.01192586 0.01415932 0.02628178
-0.01193251 0.01415953 0.02633563
-0.01194414 0.01415923 0.02638628
-0.01195578 0.01415894 0.02643694
-0.01196742 0.01415864 0.02648760
-0.01197907 0.01415835 0.02653825
-0.01198572 0.01415856 0.02659211
-0.01199736 0.01415826 0.02664278
-0.01200402 0.01415847 0.02669664
-0.01201066 0.01415867 0.02675050
-0.01201232 0.01415937 0.02680757
-0.01201397 0.01416008 0.02686466
-0.01202562 0.01415978 0.02691532
-0.00889702 0.01456897 0.03538015
-0.01151310 0.01439524 0.03956439
-0.01656848 0.01394376 0.03990990
-0.01667331 0.01393489 0.03994948
-0.01668485 0.01393460 0.03999970
-0.01669639 0.01393431 0.04004991
0.01302376 0.01618879 0.01519915
0.01299779 0.01618721 0.01524954
0.01297829 0.01618624 0.01530311
-0.01183513 0.01410927 0.02587366
-0.01184177 0.01410947 0.02592750
-0.01185341 0.01410918 0.02597816
-0.01186505 0.01410888 0.02602881
-0.01187669 0.01410859 0.02607946
-0.01188833 0.01410829 0.02613012
-0.01189497 0.01410850 0.02618396
-0.01190661 0.01410820 0.02623461
-0.01191825 0.01410791 0.02628527
-0.01192990 0.01410762 0.02633592
-0.01194154 0.01410732 0.02638658
-0.01195318 0.01410703 0.02643724
-0.01196481 0.01410673 0.02648789
-0.01197647 0.01410644 0.02653855
-0.01198311 0.01410664 0.02659241
-0.01199475 0.01410635 0.02664308
-0.01200141 0.01410655 0.02669694
-0.01200806 0.01410676 0.02675080
-0.01200971 0.01410746 0.02680787
-0.01201636 0.01410766 0.02686173
-0.01202302 0.01410786 0.02691562
-0.00884649 0.01451684 0.03517225
-0.00888912 0.01451616 0.03538401
-0.01151553 0.01434185 0.03956103
-0.01654665 0.01389422 0.03992453
-0.01667072 0.01388343 0.03994977
-0.01668227 0.01388314 0.04000000
-0.01669380 0.01388285 0.04005021
0.01307887 0.01613193 0.01497239
0.01303314 0.01613124 0.01520267
0.01300718 0.01612966 0.01525306
-0.01182088 0.01405765 0.02582330
-0.01182751 0.01405785 0.02587714
-0.01183915 0.01405756 0.02592780
-0.01185080 0.01405727 0.02597845
-0.01186244 0.01405697 0.02602911
-0.01186909 0.01405718 0.02608294
-0.01188073 0.01405688 0.02613360
-0.01189236 0.01405659 0.02618425
-0.01190400 0.01405629 0.02623491
-0.01192065 0.01405550 0.02628238
-0.01192729 0.01405571 0.02633622
-0.01193893 0.01405541 0.02638688
-0.01195556 0.01405462 0.02643435
-0.01196720 0.01405433 0.02648500
-0.01197885 0.01405403 0.02653565
-0.01198550 0.01405423 0.02658951
-0.01199214 0.01405444 0.02664337
-0.01199880 0.01405464 0.02669723
-0.01201044 0.01405434 0.02674789
-0.01201709 0.01405455 0.02680175
-0.00884904 0.01446297 0.03516898
-0.00886624 0.01446215 0.03521747
-0.00889166 0.01446229 0.03538077
-0.01666814 0.01383197 0.03995007
-0.01667967 0.01383168 0.04000029
-0.01669122 0.01383139 0.04005050
0.01308179 0.01607375 0.01497272
0.01303606 0.01607306 0.01520301
0.00879849 0.01569221 0.01509098
0.00873543 0.01568884 0.01524530
0.00874078 0.01569119 0.01537216
0.00872800 0.01569087 0.01542778
-0.01180662 0.01400604 0.02577295
-0.01181826 0.01400574 0.02582360
-0.01182991 0.01400545 0.02587426
-0.01183654 0.01400565 0.02592809
-0.01184820 0.01400536 0.02597875
-0.01185983 0.01400506 0.02602941
-0.01187147 0.01400477 0.02608006
-0.01188311 0.01400448 0.02613071
-0.01189475 0.01400418 0.02618136
-0.01190639 0.01400389 0.02623202
-0.01191804 0.01400359 0.02628268
-0.01192968 0.01400330 0.02633332
-0.01194131 0.01400301 0.02638399
-0.01195295 0.01400271 0.02643465
-0.01196459 0.01400242 0.02648529
-0.01197624 0.01400212 0.02653595
-0.01198289 0.01400232 0.02658980
-0.01199453 0.01400203 0.02664046
-0.01200117 0.01400223 0.02669433
-0.01200783 0.01400243 0.02674819
-0.01201947 0.01400213 0.02679884
-0.00884487 0.01440889 0.03511012
-0.00885682 0.01440859 0.03516217
-0.00886878 0.01440829 0.03521422
-0.00889421 0.01440843 0.03537750
-0.01666555 0.01378051 0.03995036
-0.01667710 0.01378022 0.04000059
-0.01668863 0.01377993 0.04005080
-0.01180401 0.01395413 0.02577325
-0.01181565 0.01395384 0.02582390
-0.01182730 0.01395354 0.02587456
-0.01183394 0.01395374 0.02592839
-0.01184559 0.01395345 0.02597905
-0.01185723 0.01395315 0.02602971
-0.01186886 0.01395286 0.02608036
-0.01188050 0.01395257 0.02613101
-0.01189214 0.01395227 0.02618166
-0.01190378 0.01395198 0.02623232
-0.01191543 0.01395168 0.02628297
-0.01192707 0.01395139 0.02633362
-0.01193871 0.01395110 0.02638429
-0.01195034 0.01395080 0.02643494
-0.01196699 0.01395002 0.02648240
-0.01197363 0.01395021 0.02653625
-0.01198527 0.01394992 0.02658691
-0.01199192 0.01395012 0.02664076
-0.01199856 0.01395032 0.02669463
-0.01201020 0.01395002 0.02674528
-0.01201686 0.01395022 0.02679914
-0.01200654 0.01400790 0.03066147
-0.01666297 0.01372905 0.03995066
-0.01667450 0.01372876 0.04000089
-0.01668604 0.01372847 0.04005110
-0.01181304 0.01390193 0.02582420
-0.01181969 0.01390212 0.02587803
-0.01183133 0.01390183 0.02592869
-0.01184297 0.01390154 0.02597935
-0.01185462 0.01390124 0.02603000
-0.01186626 0.01390095 0.02608065
-0.01187789 0.01390066 0.02613131
-0.01188953 0.01390036 0.02618196
-0.01190117 0.01390007 0.02623262
-0.01191281 0.01389977 0.02628327
-0.01192446 0.01389948 0.02633392
-0.01193610 0.01389919 0.02638458
-0.01195273 0.01389840 0.02643204
-0.01196437 0.01389811 0.02648269
-0.01197101 0.01389830 0.02653655
-0.01198266 0.01389801 0.02658720
-0.01198931 0.01389821 0.02664106
-0.01199596 0.01389840 0.02669492
-0.01200759 0.01389811 0.02674558
-0.01641798 0.01368801 0.03919019
-0.01666038 0.01367759 0.03995095
-0.01667193 0.01367730 0.04000118
-0.01668346 0.01367701 0.04005139
-0.01182207 0.01384973 0.02587515
-0.01182872 0.01384992 0.02592899
-0.01184036 0.01384963 0.02597965
-0.01185201 0.01384933 0.02603030
-0.01186365 0.01384904 0.02608095
-0.01187529 0.01384875 0.02613162
-0.01188692 0.01384845 0.02618226
-0.01189856 0.01384816 0.02623292
-0.01191521 0.01384737 0.02628039
-0.01192185 0.01384757 0.02633423
-0.01193848 0.01384679 0.02638169
-0.01195012 0.01384649 0.02643234
-0.01196176 0.01384620 0.02648299
-0.01197341 0.01384590 0.02653365
-0.01198006 0.01384610 0.02658751
-0.01199169 0.01384581 0.02663817
-0.01199834 0.01384600 0.02669201
-0.01635088 0.01364209 0.03917941
-0.01642022 0.01363605 0.03918693
-0.01665780 0.01362613 0.03995125
-0.01666933 0.01362584 0.04000147
-0.01668087 0.01362555 0.04005168
-0.01221643 0.01374817 0.02487086
-0.01222803 0.01374788 0.02492134
-0.01180783 0.01379811 0.02582479
-0.01181947 0.01379782 0.02587545
-0.01183112 0.01379752 0.02592611
-0.01183775 0.01379772 0.02597994
-0.01184939 0.01379742 0.02603060
-0.01186104 0.01379713 0.02608125
-0.01187268 0.01379684 0.02613191
-0.01188931 0.01379605 0.02617937
-0.01189595 0.01379625 0.02623322
-0.01191260 0.01379547 0.02628069
-0.01192424 0.01379517 0.02633133
-0.01193587 0.01379488 0.02638198
-0.01194751 0.01379459 0.02643264
-0.01195915 0.01379429 0.02648329
-0.01197080 0.01379400 0.02653395
-0.01634829 0.01359059 0.03917971
-0.01641762 0.01358458 0.03918723
-0.01665521 0.01357467 0.03995155
-0.01666674 0.01357438 0.04000177
-0.01667829 0.01357409 0.04005198
-0.01217242 0.01369963 0.02483948
-0.01219893 0.01369789 0.02488057
-0.01221052 0.01369760 0.02493106
-0.01180522 0.01374620 0.02582509
-0.01181686 0.01374591 0.02587575
-0.01182850 0.01374562 0.02592640
-0.01184015 0.01374532 0.02597705
-0.01185179 0.01374503 0.02602771
-0.01185843 0.01374522 0.02608155
-0.01187007 0.01374493 0.02613221
-0.01188670 0.01374415 0.02617967
-0.01189835 0.01374385 0.02623033
-0.01190999 0.01374356 0.02628098
-0.01192163 0.01374326 0.02633163
-0.01193327 0.01374297 0.02638228
-0.01194490 0.01374268 0.02643294
-0.01196153 0.01374190 0.02648039
-0.01196818 0.01374209 0.02653424
-0.01196429 0.01380149 0.03062512
-0.01199105 0.01379973 0.03066602
-0.01201610 0.01379982 0.03082542
-0.01202780 0.01379953 0.03087633
-0.01323560 0.01381427 0.03926575
-0.01635051 0.01353862 0.03917643
-0.01641984 0.01353262 0.03918397
-0.01658627 0.01352807 0.03988363
-0.01665261 0.01352321 0.03995184
-0.01666416 0.01352292 0.04000206
-0.01667570 0.01352263 0.04005227
-0.00849999 0.01368178 0.00478073
-0.01216981 0.01364789 0.02483978
-0.01219632 0.01364615 0.02488086
-0.01221289 0.01364538 0.02492821
-0.01180261 0.01369430 0.02582540
-0.01181425 0.01369400 0.02587605
-0.01182589 0.01369371 0.02592670
-0.01183754 0.01369341 0.02597736
-0.01184417 0.01369361 0.02603120
-0.01185581 0.01369331 0.02608185
-0.01186746 0.01369302 0.02613251
-0.01188409 0.01369224 0.02617997
-0.01189573 0.01369194 0.02623063
-0.01190738 0.01369165 0.02628128
-0.01191902 0.01369136 0.02633192
-0.01193066 0.01369106 0.02638258
-0.01194729 0.01369028 0.02643004
-0.01199846 0.01374658 0.03065962
-0.01202519 0.01374482 0.03070050
-0.01202853 0.01374619 0.03081568
-0.01204023 0.01374589 0.03086659
-0.01204692 0.01374608 0.03092084
-0.01634791 0.01348713 0.03917672
-0.01642208 0.01348067 0.03918071
-0.01657887 0.01347707 0.03988750
-0.01660003 0.01347583 0.03993057
-0.01665004 0.01347175 0.03995214
-0.01666157 0.01347146 0.04000236
-0.00845551 0.01363346 0.00474582
-0.00849740 0.01363030 0.00478103
-0.01215726 0.01359711 0.02484635
-0.01217881 0.01359586 0.02489057
-0.01220036 0.01359460 0.02493478
-0.01219209 0.01359623 0.02499784
-0.01181665 0.01364161 0.02587317
-0.01182328 0.01364180 0.02592700
-0.01183492 0.01364151 0.02597766
-0.01184657 0.01364121 0.02602831
-0.01185821 0.01364092 0.02607896
-0.01186985 0.01364062 0.02612962
-0.01188149 0.01364033 0.02618027
-0.01189312 0.01364004 0.02623092
-0.01190478 0.01363974 0.02628158
-0.01191641 0.01363945 0.02633222
-0.01193304 0.01363867 0.02637969
-0.01194468 0.01363838 0.02643034
-0.01200084 0.01369393 0.03065659
-0.01202257 0.01369266 0.03070080
-0.01204263 0.01369324 0.03086355
-0.01326707 0.01370678 0.03929934
-0.01634534 0.01343563 0.03917702
-0.01641467 0.01342967 0.03918456
-0.01657628 0.01342559 0.03988779
-0.01659743 0.01342436 0.03993086
-0.01664744 0.01342029 0.03995243
-0.01665899 0.01342000 0.04000266
-0.00846305 0.01358102 0.00474110
-0.00849989 0.01357835 0.00477882
-0.01215467 0.01354536 0.02484665
-0.01217125 0.01354459 0.02489400
-0.01219280 0.01354334 0.02493822
-0.01218948 0.01354448 0.02499814
-0.01182067 0.01358989 0.02592730
-0.01183231 0.01358960 0.02597795
-0.01184396 0.01358930 0.02602860
-0.01185560 0.01358901 0.02607926
-0.01186724 0.01358872 0.02612992
-0.01187888 0.01358842 0.02618057
-0.01189552 0.01358765 0.02622803
-0.01190716 0.01358735 0.02627868
-0.01191880 0.01358706 0.02632933
-0.01193044 0.01358677 0.02637999
-0.00149760 0.01462990 0.03571894
-0.01208177 0.01364038 0.03107081
-0.01325943 0.01365491 0.03930327
-0.01640245 0.01337914 0.03919196
-0.01658331 0.01337317 0.03988093
-0.01664487 0.01336883 0.03995273
-0.01665640 0.01336854 0.04000295
-0.01211229 0.01349497 0.02469859
-0.01212390 0.01349468 0.02474909
-0.01212555 0.01349534 0.02480585
-0.01214214 0.01349457 0.02485321
-0.01216367 0.01349333 0.02489744
-0.01218025 0.01349256 0.02494480
-0.01181807 0.01353798 0.02592760
-0.01182970 0.01353769 0.02597825
-0.01184136 0.01353740 0.02602890
-0.01185299 0.01353710 0.02607956
-0.01186463 0.01353681 0.02613021
-0.01188126 0.01353603 0.02617767
-0.01189291 0.01353574 0.02622833
-0.01190455 0.01353545 0.02627898
-0.01191619 0.01353515 0.02632963
-0.01192783 0.01353486 0.02638029
-0.00150616 0.01457338 0.03571183
-0.01207414 0.01358870 0.03107446
-0.01639506 0.01332813 0.03919583
-0.01648550 0.01332515 0.03954034
-0.01663074 0.01331766 0.03990281
-0.01664227 0.01331737 0.03995302
-0.01204005 0.01344743 0.02456930
-0.01209974 0.01344418 0.02470516
-0.01211633 0.01344341 0.02475252
-0.01213455 0.01344330 0.02485666
-0.01215610 0.01344205 0.02490087
-0.01182047 0.01348560 0.02592471
-0.01183210 0.01348530 0.02597537
-0.01184374 0.01348501 0.02602602
-0.01185538 0.01348472 0.02607667
-0.01186702 0.01348442 0.02612732
-0.01187865 0.01348413 0.02617797
-0.01189031 0.01348383 0.02622863
-0.01190194 0.01348354 0.02627928
-0.01191856 0.01348277 0.02632674
-0.00152148 0.01451710 0.03576252
-0.01638766 0.01327712 0.03919968
-0.01662815 0.01326620 0.03990310
-0.01663969 0.01326591 0.03995332
-0.01203744 0.01339568 0.02456959
-0.01182283 0.01343322 0.02592184
-0.01183447 0.01343292 0.02597249
-0.01184611 0.01343263 0.02602314
-0.01185776 0.01343233 0.02607379
-0.01638989 0.01322517 0.03919642
-0.01662557 0.01321474 0.03990339
-0.01663710 0.01321445 0.03995361
-0.00599734 0.01374829 0.01630969
-0.01203983 0.01334345 0.02456676
-0.01182523 0.01338083 0.02591896
-0.01183687 0.01338054 0.02596961
-0.01325391 0.01344496 0.03930084
-0.01432100 0.01335137 0.03917880
-0.01638730 0.01317369 0.03919671
-0.01662298 0.01316328 0.03990369
-0.00599468 0.01369537 0.01631000
-0.01203224 0.01329216 0.02457018
-0.01204883 0.01329140 0.02461756
-0.01325627 0.01339212 0.03929752
-0.01330297 0.01338847 0.03932325
-0.01638472 0.01312221 0.03919701
-0.01647995 0.01311878 0.03953795
-0.01657037 0.01311581 0.03988241
-0.00593798 0.01364346 0.01604918
-0.00595511 0.01364267 0.01609789
-0.00599730 0.01364197 0.01630736
0.00572595 0.01486005 0.03183638
0.00570090 0.01485858 0.03188479
-0.01202965 0.01324040 0.02457048
-0.01204623 0.01323964 0.02461786
-0.01206282 0.01323888 0.02466524
-0.01182172 0.01327526 0.02580238
-0.01183499 0.01327561 0.02591002
-0.01184665 0.01327532 0.02596067
-0.01185328 0.01327550 0.02601449
-0.01186992 0.01327473 0.02606195
-0.01188155 0.01327444 0.02611259
-0.01189819 0.01327367 0.02616005
-0.01190983 0.01327338 0.02621069
-0.01192811 0.01327326 0.02631517
-0.00963357 0.01365298 0.03955280
-0.01330532 0.01333564 0.03931993
-0.01638694 0.01307026 0.03919374
-0.01648219 0.01306684 0.03953468
-0.01653317 0.01306521 0.03973202
-0.00599465 0.01358905 0.01630766
0.00575384 0.01480432 0.03178830
0.00572883 0.01480286 0.03183671
0.00570378 0.01480139 0.03188512
0.00568485 0.01480049 0.03193722
0.00567204 0.01480017 0.03199302
0.00565311 0.01479928 0.03204511
-0.01202704 0.01318864 0.02457078
-0.01204363 0.01318788 0.02461816
-0.01206023 0.01318712 0.02466553
-0.01207680 0.01318636 0.02471291
-0.01208840 0.01318607 0.02476341
-0.01208508 0.01318718 0.02482332
-0.01183739 0.01322325 0.02590714
-0.01184903 0.01322295 0.02595778
-0.01185566 0.01322313 0.02601160
-0.01187231 0.01322236 0.02605906
-0.01188394 0.01322207 0.02610970
-0.01190056 0.01322131 0.02615716
-0.01191220 0.01322101 0.02620780
-0.01191886 0.01322119 0.02626163
-0.01193050 0.01322090 0.02631228
-0.01194213 0.01322060 0.02636291
-0.00963089 0.01359959 0.03955311
-0.01330270 0.01328329 0.03932023
0.00231798 0.01423332 0.01564874
-0.00598671 0.01353663 0.01631092
0.00580008 0.01475030 0.03175133
0.00576283 0.01474770 0.03179234
0.00573780 0.01474623 0.03184074
0.00571276 0.01474477 0.03188916
0.00569384 0.01474387 0.03194126
0.00568712 0.01474412 0.03200078
0.00563706 0.01474119 0.03209753
-0.01202445 0.01313689 0.02457108
-0.01205762 0.01313537 0.02466583
-0.01183978 0.01317088 0.02590426
-0.01186140 0.01316965 0.02594855
-0.01186304 0.01317029 0.02600554
-0.01187968 0.01316953 0.02605300
-0.01189132 0.01316924 0.02610364
-0.01190794 0.01316848 0.02615110
-0.01191957 0.01316818 0.02620174
-0.01192623 0.01316836 0.02625556
-0.01193787 0.01316806 0.02630620
-0.01194951 0.01316777 0.02635684
-0.01197112 0.01316654 0.02640110
-0.00964382 0.01354472 0.03954231
-0.01326835 0.01323314 0.03928393
-0.01330006 0.01323094 0.03932053
-0.01640102 0.01296548 0.03918011
-0.00597878 0.01348420 0.01631415
0.01152404 0.01517685 0.03168944
0.00580296 0.01469309 0.03175166
0.00576571 0.01469050 0.03179266
0.00574067 0.01468903 0.03184107
0.00571564 0.01468758 0.03188948
0.00569670 0.01468668 0.03194159
0.00568388 0.01468636 0.03199738
0.00563994 0.01468401 0.03209786
-0.01203181 0.01308420 0.02456512
-0.01204342 0.01308391 0.02461562
-0.01205999 0.01308315 0.02466300
-0.01185714 0.01311712 0.02589185
-0.01187378 0.01311636 0.02593930
-0.01187542 0.01311700 0.02599630
-0.01189205 0.01311624 0.02604376
-0.01190369 0.01311595 0.02609439
-0.01191531 0.01311565 0.02614503
-0.01192695 0.01311536 0.02619566
-0.01193859 0.01311506 0.02624629
-0.01195022 0.01311477 0.02629694
-0.01195689 0.01311494 0.02635076
-0.01197849 0.01311371 0.02639500
-0.01323725 0.01318184 0.03918567
-0.01328070 0.01317936 0.03927337
-0.01604743 0.01294165 0.03902780
-0.01644848 0.01291006 0.03920215
-0.00597082 0.01343176 0.01631739
