ply
format ascii 1.0
element vertex 1408
property float x
property float y
property float z
end_header
0.02186617 0.00065651 0.01616976
0.02171458 0.00065642 0.01603301
0.02168265 0.00065639 0.01599497
0.02164117 0.00065637 0.01596308
0.02160923 0.00065634 0.01592506
0.02135231 0.00065617 0.01568034
0.02100599 0.00065583 0.01525924
0.02096450 0.00065581 0.01522734
0.02092303 0.00065579 0.01519544
0.02088633 0.00065577 0.01516049
0.02083528 0.00065576 0.01513466
0.02079858 0.00065574 0.01509971
0.02072519 0.00065569 0.01502981
0.02069329 0.00065566 0.01499182
0.02065180 0.00065564 0.01495991
0.02061029 0.00065562 0.01492800
0.02056880 0.00065560 0.01489608
0.02052251 0.00065559 0.01486719
0.02043949 0.00065555 0.01480335
0.02040759 0.00065552 0.01476537
0.02032457 0.00065548 0.01470150
0.02028306 0.00065546 0.01466958
0.02024154 0.00065545 0.01463764
0.02019522 0.00065543 0.01460873
0.02210250 0.00060606 0.01642851
0.02208005 0.00060602 0.01638430
0.02205285 0.00060599 0.01634318
0.02201615 0.00060597 0.01630822
0.02197945 0.00060594 0.01627326
0.02194275 0.00060592 0.01623830
0.02190605 0.00060589 0.01620335
0.02186459 0.00060587 0.01617146
0.02182788 0.00060585 0.01613650
0.02174971 0.00060580 0.01606967
0.02171300 0.00060578 0.01603471
0.02168106 0.00060575 0.01599666
0.02163959 0.00060573 0.01596478
0.02160288 0.00060571 0.01592983
0.02157095 0.00060568 0.01589179
0.02152947 0.00060566 0.01585991
0.02135073 0.00060553 0.01568204
0.02095814 0.00060520 0.01523209
0.02091666 0.00060518 0.01520018
0.02087997 0.00060515 0.01516522
0.02083370 0.00060514 0.01513636
0.02080178 0.00060511 0.01509837
0.02060871 0.00060499 0.01492970
0.02056243 0.00060498 0.01490081
0.02043791 0.00060492 0.01480505
0.02040601 0.00060489 0.01476706
0.02036451 0.00060487 0.01473513
0.02032299 0.00060485 0.01470320
0.02028629 0.00060482 0.01466824
0.02023996 0.00060481 0.01463934
0.02194592 0.00055528 0.01623693
0.02171141 0.00055514 0.01603641
0.02167471 0.00055512 0.01600144
0.02163324 0.00055510 0.01596954
0.02160129 0.00055507 0.01593152
0.02092464 0.00055455 0.01519579
0.02089275 0.00055452 0.01515779
0.02083690 0.00055451 0.01513502
0.02080978 0.00055448 0.01509399
0.02070449 0.00055441 0.01498611
0.02065822 0.00055439 0.01495723
0.02061673 0.00055436 0.01492532
0.02057043 0.00055434 0.01489644
0.02044113 0.00055428 0.01480372
0.02040443 0.00055426 0.01476876
0.02036773 0.00055423 0.01473381
0.02032621 0.00055421 0.01470187
0.02028470 0.00055419 0.01466994
0.02024800 0.00055416 0.01463498
0.02170029 0.00050451 0.01604424
0.02166836 0.00050448 0.01600621
0.02162689 0.00050446 0.01597432
0.02159494 0.00050443 0.01593629
0.02091828 0.00050393 0.01520053
0.02056885 0.00050372 0.01489814
0.02043954 0.00050365 0.01480541
0.02032463 0.00050357 0.01470357
0.02028312 0.00050355 0.01467164
0.02169871 0.00045387 0.01604594
0.02166201 0.00045384 0.01601098
0.02158859 0.00045379 0.01594106
0.02060395 0.00045312 0.01493479
0.02055767 0.00045309 0.01490591
0.02043796 0.00045302 0.01480711
0.02031343 0.00045294 0.01471133
0.02027191 0.00045291 0.01467939
0.02041489 0.00045244 0.01303261
0.02037846 0.00045241 0.01299790
0.02034202 0.00045239 0.01296319
-0.01018518 0.00043665 -0.00190150
0.02169237 0.00040323 0.01605071
0.02165566 0.00040320 0.01601575
0.02054648 0.00040246 0.01491368
0.02046348 0.00040240 0.01484983
0.02043158 0.00040238 0.01481184
0.02035816 0.00040233 0.01474193
0.02030703 0.00040230 0.01471606
0.02026552 0.00040227 0.01468413
0.02020475 0.00040224 0.01466431
0.02207214 0.00035284 0.01639279
0.02196202 0.00035277 0.01628792
0.02168602 0.00035258 0.01605549
0.02165408 0.00035256 0.01601744
0.02077949 0.00035198 0.01511599
0.02074279 0.00035196 0.01508103
0.02062310 0.00035188 0.01498225
0.02055450 0.00035183 0.01490930
0.02046669 0.00035177 0.01484849
0.02081439 0.00029671 0.03077236
0.02196044 0.00030213 0.01628961
0.02171160 0.00030195 0.01609830
0.02167967 0.00030193 0.01606026
0.02164772 0.00030191 0.01602222
0.02160625 0.00030188 0.01599032
0.02157907 0.00030187 0.01594922
0.02077311 0.00030135 0.01512072
0.02074121 0.00030133 0.01508273
0.02070451 0.00030131 0.01504778
0.02066781 0.00030128 0.01501282
0.02062152 0.00030125 0.01498394
0.02058482 0.00030122 0.01494899
0.02055292 0.00030120 0.01491100
0.02046990 0.00030114 0.01484716
0.02043802 0.00030112 0.01480917
-0.00242020 0.00027864 0.01735450
0.02079740 0.00024282 0.03078543
0.02207847 0.00025158 0.01639002
0.02196361 0.00025150 0.01628822
0.02192214 0.00025147 0.01625635
0.02171479 0.00025131 0.01609691
0.02168284 0.00025129 0.01605888
0.02164613 0.00025127 0.01602392
0.02160466 0.00025124 0.01599202
0.02157749 0.00025123 0.01595092
0.02062473 0.00025062 0.01498260
0.02058803 0.00025060 0.01494765
0.02055612 0.00025058 0.01490966
0.02050503 0.00025054 0.01488382
0.02046832 0.00025051 0.01484886
0.02043644 0.00025049 0.01481087
0.02039973 0.00025047 0.01477591
0.02031672 0.00025041 0.01471206
0.02037217 0.00025133 0.01300465
0.02033573 0.00025131 0.01296993
-0.00546041 0.00021690 0.02247433
-0.00548926 0.00021689 0.02242735
-0.00553717 0.00021685 0.02239148
0.02192056 0.00020083 0.01625805
0.02183762 0.00020076 0.01619428
0.02170368 0.00020065 0.01610476
0.02163979 0.00020062 0.01602868
0.02159354 0.00020057 0.01599985
0.02156636 0.00020057 0.01595876
0.02058165 0.00019996 0.01495238
0.02037060 0.00020107 0.01300633
-0.00557415 0.00015952 0.02235013
0.02167121 0.00014912 0.01700948
0.02190946 0.00015017 0.01626591
0.02169256 0.00014998 0.01611262
0.02165584 0.00014995 0.01607765
0.02162389 0.00014994 0.01603960
0.02158241 0.00014991 0.01600771
0.02155046 0.00014989 0.01596966
0.02046517 0.00014925 0.01485226
0.02036902 0.00015080 0.01300801
0.02320133 0.00009731 0.02023960
0.02316898 0.00009729 0.02020101
0.02166004 0.00009826 0.01701740
0.02168621 0.00009932 0.01611739
0.02163996 0.00009927 0.01608857
0.02154411 0.00009923 0.01597444
0.02056888 0.00009868 0.01496185
0.02053218 0.00009865 0.01492690
0.02048588 0.00009860 0.01489802
0.02042687 0.00009859 0.01481900
0.02040389 0.00010055 0.01304441
0.02036746 0.00010053 0.01300970
0.02319495 0.00004608 0.02024455
0.02316739 0.00004609 0.02020272
0.02170010 0.00004745 0.01705110
0.02168463 0.00004866 0.01611909
0.02154252 0.00004858 0.01597614
0.02058960 0.00004803 0.01500763
0.02056250 0.00004803 0.01496659
0.02052580 0.00004800 0.01493163
0.02047949 0.00004795 0.01490275
0.02044758 0.00004794 0.01486476
0.02042049 0.00004794 0.01482373
0.02035189 0.00004791 0.01475079
0.02031519 0.00004788 0.01471583
0.02036588 0.00005026 0.01301139
0.02319813 -0.00000511 0.02024303
0.02312389 -0.00000516 0.02017232
0.02308677 -0.00000518 0.02013697
0.02171144 -0.00000344 0.01710349
0.02169372 -0.00000341 0.01705592
0.02165207 -0.00000345 0.01702394
0.02162957 -0.00000343 0.01697949
0.02168304 -0.00000199 0.01612078
0.02055612 -0.00000262 0.01497133
0.02052422 -0.00000263 0.01493333
0.02047309 -0.00000270 0.01490749
0.02044120 -0.00000271 0.01486949
0.02041410 -0.00000270 0.01482846
0.02037740 -0.00000273 0.01479349
0.02034549 -0.00000274 0.01475551
0.02308516 -0.00005639 0.02013869
0.02296425 -0.00005650 0.02003910
0.02292712 -0.00005652 0.02000374
0.02170984 -0.00005429 0.01710520
0.02169213 -0.00005425 0.01705763
0.02164091 -0.00005433 0.01703187
0.02161843 -0.00005430 0.01698742
0.02177395 -0.00005253 0.01618012
0.02168146 -0.00005264 0.01612248
0.02159847 -0.00005272 0.01605869
0.02056724 -0.00005332 0.01502319
0.02054493 -0.00005329 0.01497911
0.02050821 -0.00005332 0.01494415
0.02046672 -0.00005336 0.01491222
0.02043481 -0.00005336 0.01487423
0.02040771 -0.00005336 0.01483319
0.02037100 -0.00005338 0.01479823
0.02033912 -0.00005339 0.01476023
0.02030240 -0.00005341 0.01472528
0.02296264 -0.00010771 0.02004081
0.02172598 -0.00010519 0.01715449
0.02169868 -0.00010518 0.01711313
0.02167618 -0.00010515 0.01706868
0.02163453 -0.00010519 0.01703669
0.02161203 -0.00010516 0.01699224
0.02175806 -0.00010323 0.01619105
0.02167511 -0.00010331 0.01612726
0.02159213 -0.00010340 0.01606346
0.02152346 -0.00010343 0.01599044
0.02056085 -0.00010398 0.01502793
0.02053855 -0.00010395 0.01498384
0.02049223 -0.00010401 0.01495495
0.02045552 -0.00010403 0.01491999
0.02042842 -0.00010402 0.01487896
0.02040131 -0.00010401 0.01483792
0.02036461 -0.00010404 0.01480296
0.02033271 -0.00010404 0.01476497
0.02029601 -0.00010407 0.01473001
0.02036116 -0.00010055 0.01301645
-0.01156765 -0.00018729 0.01610876
0.02300295 -0.00015887 0.02007465
0.02296582 -0.00015890 0.02003929
0.02172439 -0.00015605 0.01715620
0.02170189 -0.00015601 0.01711173
0.02167459 -0.00015600 0.01707039
0.02163774 -0.00015602 0.01703528
0.02162002 -0.00015597 0.01698772
0.02174696 -0.00015392 0.01619890
0.02166875 -0.00015399 0.01613203
0.02162249 -0.00015405 0.01610321
0.02159055 -0.00015406 0.01606516
0.02155383 -0.00015408 0.01603018
0.02151710 -0.00015410 0.01599520
0.02148038 -0.00015413 0.01596023
0.02054486 -0.00015468 0.01503875
0.02051775 -0.00015467 0.01499770
0.02047624 -0.00015471 0.01496577
0.02043952 -0.00015474 0.01493081
0.02041723 -0.00015470 0.01488672
0.02038531 -0.00015471 0.01484873
0.02035342 -0.00015471 0.01481073
0.02032632 -0.00015470 0.01476970
0.02028961 -0.00015472 0.01473474
0.02039602 -0.00015080 0.01305284
0.02035959 -0.00015082 0.01301813
-0.00291342 -0.00022515 0.01807107
-0.01156944 -0.00024449 0.01611067
0.02296422 -0.00021011 0.02004101
0.02172279 -0.00020691 0.01715790
0.02170029 -0.00020687 0.01711343
0.02167779 -0.00020683 0.01706897
0.02164571 -0.00020683 0.01703075
0.02162801 -0.00020677 0.01698319
0.02159594 -0.00020677 0.01694499
0.02166717 -0.00020464 0.01613373
0.02161615 -0.00020473 0.01610798
0.02158418 -0.00020473 0.01606993
0.02154747 -0.00020476 0.01603496
0.02151552 -0.00020476 0.01599690
0.02147880 -0.00020479 0.01596193
0.02143730 -0.00020483 0.01593003
0.02140059 -0.00020485 0.01589506
0.02054808 -0.00020531 0.01503741
0.02052097 -0.00020530 0.01499636
0.02047464 -0.00020536 0.01496747
0.02043794 -0.00020539 0.01493251
0.02041082 -0.00020537 0.01489146
0.02038373 -0.00020535 0.01485043
0.02035183 -0.00020536 0.01481242
0.02032474 -0.00020534 0.01477139
0.02029283 -0.00020534 0.01473340
-0.01155813 -0.00030164 0.01610566
0.02296740 -0.00026129 0.02003950
0.02165227 -0.00025779 0.01708627
0.02163455 -0.00025772 0.01703870
0.02162163 -0.00025763 0.01698802
0.02166082 -0.00025532 0.01613850
0.02160980 -0.00025541 0.01611275
0.02157784 -0.00025542 0.01607471
0.02154110 -0.00025544 0.01603973
0.02150916 -0.00025544 0.01600168
0.02147244 -0.00025547 0.01596671
0.02143094 -0.00025551 0.01593480
0.02139899 -0.00025551 0.01589676
0.02136227 -0.00025554 0.01586178
0.02055609 -0.00025592 0.01503303
0.02052899 -0.00025590 0.01499198
0.02047788 -0.00025599 0.01496613
0.02044116 -0.00025602 0.01493116
0.02041405 -0.00025599 0.01489012
0.02038696 -0.00025597 0.01484909
0.02035505 -0.00025597 0.01481109
0.02032316 -0.00025598 0.01477309
-0.01155992 -0.00035884 0.01610758
-0.01160139 -0.00035887 0.01606809
0.02300292 -0.00031248 0.02007657
0.02296102 -0.00031252 0.02004445
0.02292390 -0.00031255 0.02000909
0.02172777 -0.00030874 0.01721516
0.02170525 -0.00030869 0.01717068
0.02161860 -0.00030864 0.01704974
0.02160089 -0.00030857 0.01700217
0.02165924 -0.00030598 0.01614020
0.02160344 -0.00030610 0.01611753
0.02157624 -0.00030608 0.01607641
0.02153952 -0.00030610 0.01604143
0.02150281 -0.00030612 0.01600645
0.02146131 -0.00030617 0.01597454
0.02142459 -0.00030620 0.01593956
0.02055931 -0.00030654 0.01503168
0.02053221 -0.00030652 0.01499064
0.02048108 -0.00030661 0.01496480
0.02044438 -0.00030664 0.01492982
0.02041727 -0.00030661 0.01488879
0.02038537 -0.00030661 0.01485079
0.02035347 -0.00030661 0.01481279
-0.01156826 -0.00041607 0.01611297
-0.01160972 -0.00041610 0.01607347
0.02299654 -0.00036371 0.02008152
0.02295941 -0.00036373 0.02004616
0.02292229 -0.00036376 0.02001081
0.02288517 -0.00036378 0.01997545
0.02187027 -0.00035935 0.01730034
0.02173576 -0.00035956 0.01721061
0.02170846 -0.00035953 0.01716926
0.02168116 -0.00035950 0.01712791
0.02164429 -0.00035953 0.01709280
0.02162179 -0.00035947 0.01704834
0.02159230 -0.00035681 0.01612538
0.02156512 -0.00035679 0.01608425
0.02152839 -0.00035681 0.01604927
0.02148689 -0.00035686 0.01601736
0.02144539 -0.00035691 0.01598546
0.02141345 -0.00035691 0.01594741
0.02057213 -0.00035711 0.01502426
0.02054024 -0.00035711 0.01498625
0.02048911 -0.00035721 0.01496042
0.02044278 -0.00035728 0.01493152
0.02041569 -0.00035726 0.01489048
0.02038859 -0.00035723 0.01484945
0.02035670 -0.00035723 0.01481145
0.02299494 -0.00041492 0.02008323
0.02295782 -0.00041494 0.02004788
0.02292070 -0.00041497 0.02001253
0.02288358 -0.00041499 0.01997717
0.02187346 -0.00041018 0.01729891
0.02184138 -0.00041018 0.01726069
0.02171166 -0.00041036 0.01716784
0.02167957 -0.00041036 0.01712961
0.02164750 -0.00041035 0.01709139
0.02162020 -0.00041032 0.01705004
0.02157640 -0.00040757 0.01613632
0.02154921 -0.00040753 0.01609518
0.02149816 -0.00040764 0.01606942
0.02145666 -0.00040769 0.01603750
0.02141038 -0.00040777 0.01600866
0.02056575 -0.00040777 0.01502900
0.02053384 -0.00040777 0.01499100
0.02047792 -0.00040791 0.01496819
0.02043641 -0.00040796 0.01493625
0.02040930 -0.00040793 0.01489522
0.02037740 -0.00040792 0.01485723
0.02035031 -0.00040789 0.01481619
-0.01156528 -0.00053044 0.01611333
-0.00949390 -0.00046959 -0.00052009
-0.00954467 -0.00046968 -0.00055154
-0.00957125 -0.00046964 -0.00059375
-0.00959782 -0.00046960 -0.00063596
0.02194560 -0.00046098 0.01737084
0.02189916 -0.00046107 0.01734199
0.02187665 -0.00046100 0.01729751
0.02184457 -0.00046100 0.01725927
0.02179337 -0.00046111 0.01723353
0.02171007 -0.00046122 0.01716954
0.02167797 -0.00046121 0.01713132
0.02164590 -0.00046121 0.01709309
0.02161862 -0.00046118 0.01705175
0.02156051 -0.00045833 0.01614723
0.02152854 -0.00045832 0.01610918
0.02043481 -0.00045861 0.01493795
-0.01151288 -0.00056888 0.01066480
-0.00956687 -0.00052296 -0.00059465
-0.00959344 -0.00052292 -0.00063686
0.02189757 -0.00051192 0.01734370
0.02187505 -0.00051186 0.01729921
0.02184299 -0.00051185 0.01726098
0.02179177 -0.00051197 0.01723523
0.02170369 -0.00051211 0.01717438
0.02167161 -0.00051210 0.01713614
0.02163953 -0.00051209 0.01709791
0.02155893 -0.00050900 0.01614893
0.02151741 -0.00050906 0.01611703
0.02042843 -0.00050929 0.01494270
0.00252815 -0.00059803 0.01917630
0.00642370 -0.00055981 0.01301834
-0.01149538 -0.00062482 0.01065703
-0.00956854 -0.00057630 -0.00059287
0.02189599 -0.00056278 0.01734540
0.02187824 -0.00056267 0.01729779
0.02184139 -0.00056270 0.01726268
0.02179018 -0.00056282 0.01723694
0.02170210 -0.00056297 0.01717608
0.02167001 -0.00056296 0.01713785
0.02164273 -0.00056292 0.01709650
0.02054179 -0.00055983 0.01504625
0.02051948 -0.00055976 0.01500218
0.02046837 -0.00055988 0.01497632
0.02042684 -0.00055994 0.01494440
-0.01148117 -0.00070194 0.01619459
-0.00951099 -0.00062971 -0.00050933
-0.00955571 -0.00062977 -0.00054348
-0.00958230 -0.00062972 -0.00058570
-0.00960283 -0.00062964 -0.00063059
0.02187666 -0.00061353 0.01729949
0.02183980 -0.00061355 0.01726439
0.02178858 -0.00061368 0.01723865
0.01920961 -0.00061188 0.01391017
-0.00654337 -0.00068446 0.00315982
-0.00657022 -0.00068441 0.00311722
-0.00958396 -0.00068307 -0.00058390
0.02187507 -0.00066438 0.01730119
0.02184299 -0.00066437 0.01726297
0.02178700 -0.00066453 0.01724035
0.01920317 -0.00066259 0.01391487
-0.00957355 -0.00073635 -0.00058749
0.02186869 -0.00071526 0.01730603
0.02183183 -0.00071529 0.01727092
0.02178541 -0.00071539 0.01724205
0.02173898 -0.00071549 0.01721319
0.02170211 -0.00071551 0.01717807
0.01926535 -0.00071330 0.01399256
0.01922378 -0.00071336 0.01396059
0.01919673 -0.00071331 0.01391958
0.01916000 -0.00071333 0.01388459
0.02182068 -0.00076622 0.01727887
0.02177903 -0.00076628 0.01724689
0.01926377 -0.00076397 0.01399426
0.01922704 -0.00076400 0.01395927
0.01919515 -0.00076399 0.01392128
0.01916327 -0.00076397 0.01388329
0.01926704 -0.00081462 0.01399296
0.01922545 -0.00081468 0.01396097
0.01920326 -0.00081458 0.01391696
0.01916653 -0.00081461 0.01388197
0.01927514 -0.00086521 0.01398864
0.01923357 -0.00086528 0.01395666
0.01921137 -0.00086517 0.01391266
0.01917464 -0.00086520 0.01387767
0.00631876 -0.00093079 0.01290854
0.01923682 -0.00091591 0.01395535
0.01920977 -0.00091585 0.01391436
0.01917788 -0.00091583 0.01387636
0.00639395 -0.00098374 0.01298350
0.00635552 -0.00098377 0.01294691
0.00632809 -0.00098370 0.01290408
-0.00826167 -0.00103594 0.00708675
0.01923040 -0.00096663 0.01396006
0.01920819 -0.00096652 0.01391606
0.01917630 -0.00096650 0.01387806
-0.00825721 -0.00109056 0.00708557
0.01926555 -0.00101728 0.01399674
0.01922882 -0.00101730 0.01396175
0.01920661 -0.00101719 0.01391776
0.01917472 -0.00101717 0.01387976
-0.00825892 -0.00114523 0.00708740
-0.00827396 -0.00114504 0.00703760
-0.00830127 -0.00114496 0.00699384
0.01922722 -0.00106798 0.01396345
0.01920502 -0.00106786 0.01391946
0.01924017 -0.00111851 0.01395614
0.01921798 -0.00111838 0.01391213
-0.00825791 -0.00130918 0.00708988
-0.00825961 -0.00136385 0.00709172
-0.00659475 -0.00138731 0.00419693
-0.00662173 -0.00138722 0.00415409
0.01999438 -0.00145999 0.03481867
-0.00576240 -0.00145479 0.00705898
-0.00659643 -0.00144105 0.00419874
-0.00662340 -0.00144095 0.00415590
0.02002719 -0.00151487 0.03486232
0.01999266 -0.00151483 0.03482051
0.01998574 -0.00156973 0.03482631
0.01928236 -0.00141012 0.01232712
0.01923627 -0.00141026 0.01229825
0.01920459 -0.00141023 0.01226057
0.01918736 -0.00141002 0.01221408
0.01998924 -0.00162450 0.03482419
0.01928078 -0.00146044 0.01232880
0.01922987 -0.00146065 0.01230287
0.01998752 -0.00167934 0.03482603
-0.00475624 -0.00161141 -0.00624212
0.01995927 -0.00162095 0.01420891
0.01994187 -0.00162071 0.01416195
0.00599386 -0.00179220 0.01422246
-0.00589865 -0.00184130 0.00781869
0.01999632 -0.00189845 0.03482150
0.01995134 -0.00189855 0.03478760
-0.00590035 -0.00189565 0.00782051
-0.00594579 -0.00189576 0.00778602
-0.00589602 -0.00194992 0.00781932
-0.00594145 -0.00195002 0.00778481
-0.00595523 -0.00200454 0.00779269
0.01992433 -0.00187370 0.01417645
-0.00168090 -0.00187710 -0.00759522
-0.00168791 -0.00192750 -0.00759120
-0.00596033 -0.00216759 0.00779816
-0.00592867 -0.00222201 0.00784052
-0.00596806 -0.00222204 0.00780299
0.02028234 -0.00207811 0.01476593
0.02028410 -0.00207750 0.01470674
0.01991133 -0.00207668 0.01424525
0.01987466 -0.00207671 0.01421033
0.01983801 -0.00207673 0.01417540
0.01924804 -0.00207949 0.01384933
0.01919679 -0.00207975 0.01382338
0.01916493 -0.00207970 0.01378541
0.01912823 -0.00207972 0.01375045
0.01907213 -0.00208006 0.01372749
0.01902571 -0.00208025 0.01369852
0.01897930 -0.00208043 0.01366956
0.01893774 -0.00208053 0.01363758
0.01891072 -0.00208040 0.01359662
-0.00595164 -0.00227611 0.00779575
0.02026987 -0.00212773 0.01465835
0.02024761 -0.00212751 0.01461435
0.02006124 -0.00212709 0.01438364
0.01992716 -0.00212757 0.01429394
0.01989532 -0.00212751 0.01425599
0.01984899 -0.00212770 0.01422709
0.01979785 -0.00212797 0.01420120
0.01935656 -0.00213005 0.01395589
0.01932953 -0.00212991 0.01391494
0.01928799 -0.00213002 0.01388298
0.01924160 -0.00213020 0.01385403
0.01920006 -0.00213031 0.01382206
0.01916336 -0.00213033 0.01378711
0.01912180 -0.00213044 0.01375516
0.01907055 -0.00213071 0.01372918
0.01902413 -0.00213089 0.01370022
0.01897772 -0.00213108 0.01367126
0.01894100 -0.00213111 0.01363629
0.01890914 -0.00213105 0.01359832
0.01887728 -0.00213099 0.01356035
0.01939169 -0.00218066 0.01399256
0.01935014 -0.00218077 0.01396061
0.01931828 -0.00218071 0.01392264
0.01927672 -0.00218082 0.01389069
0.01923518 -0.00218092 0.01385873
0.01919848 -0.00218095 0.01382376
0.01916660 -0.00218089 0.01378581
0.01912506 -0.00218100 0.01375385
0.01907866 -0.00218119 0.01372489
0.01902740 -0.00218146 0.01369892
0.01898584 -0.00218157 0.01366695
0.01894428 -0.00218167 0.01363499
0.01891240 -0.00218161 0.01359701
0.01888055 -0.00218156 0.01355906
0.01986805 -0.00222911 0.01427446
0.01978023 -0.00222942 0.01421362
0.01938526 -0.00223138 0.01399726
0.01934855 -0.00223140 0.01396231
0.01931669 -0.00223134 0.01392433
0.01927514 -0.00223145 0.01389238
0.01922874 -0.00223165 0.01386344
0.01919688 -0.00223159 0.01382546
0.01911862 -0.00223172 0.01375856
0.01907222 -0.00223191 0.01372959
0.01902582 -0.00223211 0.01370062
0.01897940 -0.00223230 0.01367165
0.01986647 -0.00227971 0.01427616
0.01977864 -0.00228002 0.01421532
0.01970528 -0.00228007 0.01414545
0.01966377 -0.00228018 0.01411352
0.01986970 -0.00233023 0.01427484
0.01982339 -0.00233042 0.01424593
0.01978189 -0.00233054 0.01421401
0.01970853 -0.00233059 0.01414414
0.02171306 -0.00256365 0.02767460
-0.00985281 -0.00262089 0.00076959
0.02174485 -0.00261674 0.02771657
0.02171141 -0.00261666 0.02767638
-0.00985450 -0.00267455 0.00077139
0.02170976 -0.00266967 0.02767815
0.01063089 -0.00273462 0.02197275
0.01061353 -0.00273422 0.02192158
-0.00121529 -0.00293874 0.02720601
-0.00123829 -0.00293841 0.02715474
-0.00151828 -0.00266572 0.00392161
-0.00985618 -0.00272821 0.00077319
0.01064655 -0.00278904 0.02202573
0.01061828 -0.00278885 0.02198150
0.01060094 -0.00278844 0.02193033
0.01057270 -0.00278825 0.02188610
-0.00986394 -0.00278198 0.00077774
0.01062205 -0.00284275 0.02197985
0.01060471 -0.00284233 0.02192867
0.00704193 -0.00279315 0.01434217
-0.00986563 -0.00283564 0.00077955
0.02079779 -0.00274043 0.01971213
0.01062582 -0.00289664 0.02197818
0.01060301 -0.00289633 0.02193048
0.01062413 -0.00295065 0.02197999
0.01060133 -0.00295033 0.02193229
-0.00581071 -0.00311702 0.01418391
-0.00580628 -0.00317253 0.01418246
-0.00582807 -0.00317218 0.01413413
-0.00583600 -0.00322793 0.01413930
-0.00580975 -0.00328379 0.01418619
-0.00583155 -0.00328343 0.01413786
0.02171829 -0.00314704 0.02774154
-0.00581150 -0.00333942 0.01418805
-0.00583330 -0.00333905 0.01413973
-0.00151511 -0.00323527 0.00327105
0.01849204 -0.00343919 0.03379896
0.01845224 -0.00343921 0.03376106
-0.00580110 -0.00350682 0.01424532
-0.00583525 -0.00350671 0.01420359
0.01848505 -0.00349422 0.03380473
0.01844525 -0.00349425 0.03376683
0.01840547 -0.00349427 0.03372893
0.02159260 -0.00323876 0.01937080
0.02156024 -0.00323867 0.01933217
0.02152306 -0.00323869 0.01929676
0.01847805 -0.00354925 0.03381051
0.01843825 -0.00354928 0.03377261
0.02159099 -0.00329006 0.01937252
0.02155864 -0.00328997 0.01933389
0.02152145 -0.00328999 0.01929848
0.01980641 -0.00358152 0.03362767
0.01976684 -0.00358155 0.03358997
0.01847634 -0.00360415 0.03381235
0.01843654 -0.00360418 0.03377445
0.02158456 -0.00334148 0.01937746
0.02155703 -0.00334127 0.01933561
0.02151985 -0.00334129 0.01930020
0.01796269 -0.00339243 0.01916757
0.02129059 -0.00351724 0.02728257
0.02127719 -0.00351662 0.02722809
0.02157812 -0.00339291 0.01938239
0.02155060 -0.00339269 0.01934054
0.02151342 -0.00339271 0.01930512
0.01975822 -0.00369089 0.03359753
0.01972385 -0.00369077 0.03355593
0.01968427 -0.00369080 0.03351824
0.02129394 -0.00357010 0.02728076
0.02128053 -0.00356947 0.02722628
0.02160405 -0.00344443 0.01942598
0.02157170 -0.00344433 0.01938733
0.02154899 -0.00344399 0.01934227
0.02151181 -0.00344401 0.01930685
0.02159761 -0.00349587 0.01943092
0.02157009 -0.00349564 0.01938905
0.02154256 -0.00349541 0.01934721
0.02150537 -0.00349544 0.01931179
0.02146818 -0.00349546 0.01927637
0.02142133 -0.00349574 0.01924737
-0.00414798 -0.00364198 0.00317766
0.01964648 -0.00379988 0.03348030
0.01960690 -0.00379991 0.03344261
0.02159600 -0.00354717 0.01943264
0.02156365 -0.00354707 0.01939400
0.02154095 -0.00354672 0.01934892
0.02149893 -0.00354687 0.01931672
-0.00177178 -0.00361230 0.00031280
-0.00182071 -0.00361259 0.00028222
0.01986663 -0.00385476 0.03372002
0.01983225 -0.00385464 0.03367841
0.01979268 -0.00385466 0.03364071
0.01975310 -0.00385469 0.03360302
0.01971872 -0.00385457 0.03356143
0.01967914 -0.00385460 0.03352373
0.01964478 -0.00385448 0.03348213
0.01961040 -0.00385436 0.03344055
0.02159441 -0.00359848 0.01943436
0.02155721 -0.00359851 0.01939894
0.02153452 -0.00359815 0.01935386
0.02149732 -0.00359817 0.01931844
0.02145046 -0.00359845 0.01928945
-0.00712337 -0.00397336 0.01429857
-0.00715140 -0.00397308 0.01425330
-0.00717315 -0.00397265 0.01420473
-0.00181670 -0.00366442 0.00028132
0.01986493 -0.00390936 0.03372185
0.01983055 -0.00390924 0.03368025
0.01979098 -0.00390927 0.03364255
0.01975140 -0.00390929 0.03360485
0.01971181 -0.00390932 0.03356715
0.01967743 -0.00390920 0.03352556
0.01964307 -0.00390908 0.03348397
0.01960869 -0.00390896 0.03344239
0.02159280 -0.00364979 0.01943608
0.02155560 -0.00364982 0.01940066
0.02152808 -0.00364958 0.01935879
0.02149089 -0.00364961 0.01932337
0.02144885 -0.00364976 0.01929117
0.02140200 -0.00365005 0.01926217
0.02136481 -0.00365007 0.01922674
0.02132761 -0.00365010 0.01919132
-0.00701605 -0.00402949 0.01442289
-0.00705032 -0.00402937 0.01438095
-0.00710334 -0.00402970 0.01434902
-0.00711887 -0.00402911 0.01429710
-0.00714688 -0.00402883 0.01425185
-0.00717489 -0.00402854 0.01420660
-0.00723718 -0.00402813 0.01411945
0.01986322 -0.00396396 0.03372368
0.01982884 -0.00396384 0.03368208
0.01978926 -0.00396387 0.03364438
0.01974969 -0.00396389 0.03360669
0.01971011 -0.00396392 0.03356899
0.01967573 -0.00396380 0.03352740
0.01964135 -0.00396367 0.03348580
0.01960699 -0.00396355 0.03344421
0.01956220 -0.00396373 0.03341041
0.01952264 -0.00396375 0.03337272
0.01948826 -0.00396363 0.03333113
0.02233870 -0.00371647 0.02111556
0.02155399 -0.00370112 0.01940238
0.02152647 -0.00370089 0.01936051
0.02148929 -0.00370091 0.01932509
0.02144241 -0.00370120 0.01929610
0.02139555 -0.00370149 0.01926710
0.02135836 -0.00370151 0.01923168
0.02132116 -0.00370154 0.01919625
0.02128397 -0.00370156 0.01916083
-0.00702403 -0.00408556 0.01442810
-0.00705206 -0.00408527 0.01438283
-0.00709884 -0.00408545 0.01434757
-0.00712061 -0.00408501 0.01429898
-0.00714864 -0.00408472 0.01425373
-0.00727318 -0.00408389 0.01407942
0.01986150 -0.00401857 0.03372552
0.01982193 -0.00401859 0.03368782
0.01978235 -0.00401862 0.03365012
0.01974277 -0.00401865 0.03361242
0.01967402 -0.00401840 0.03352923
0.01963444 -0.00401842 0.03349153
0.01960008 -0.00401830 0.03344993
0.01956050 -0.00401833 0.03341224
0.01952092 -0.00401835 0.03337455
0.01948655 -0.00401823 0.03333297
0.01944698 -0.00401825 0.03329527
0.02237444 -0.00376795 0.02115285
0.02233709 -0.00376798 0.02111728
0.02154756 -0.00375257 0.01940731
0.02151521 -0.00375246 0.01936867
0.02147801 -0.00375248 0.01933325
0.02143115 -0.00375278 0.01930425
0.02138911 -0.00375293 0.01927204
0.02131471 -0.00375298 0.01920119
-0.00018004 -0.00425014 0.02775738
-0.00703204 -0.00414162 0.01443331
-0.00706631 -0.00414149 0.01439137
-0.00711310 -0.00414168 0.01435611
-0.00712861 -0.00414107 0.01430419
-0.00715664 -0.00414078 0.01425892
0.01989418 -0.00407330 0.03376894
0.01985981 -0.00407317 0.03372735
0.01982023 -0.00407320 0.03368965
0.01978064 -0.00407322 0.03365195
0.01974106 -0.00407325 0.03361425
0.01967230 -0.00407300 0.03353105
0.01963273 -0.00407302 0.03349336
0.01959836 -0.00407290 0.03345177
0.01955879 -0.00407292 0.03341407
0.01951921 -0.00407295 0.03337637
0.01948485 -0.00407282 0.03333480
0.01944527 -0.00407285 0.03329710
0.01940569 -0.00407288 0.03325941
0.02234031 -0.00381935 0.02111572
-0.00701505 -0.00419705 0.01442518
-0.00705557 -0.00419708 0.01438658
-0.00710234 -0.00419727 0.01435132
-0.00711785 -0.00419665 0.01429939
-0.00715213 -0.00419652 0.01425748
-0.00718014 -0.00419622 0.01421223
-0.00724867 -0.00419596 0.01412840
-0.00727667 -0.00419566 0.01408317
-0.00731719 -0.00419569 0.01404459
0.01989248 -0.00412790 0.03377078
0.01985291 -0.00412793 0.03373308
0.01981331 -0.00412795 0.03369538
0.01977374 -0.00412798 0.03365768
0.01973416 -0.00412801 0.03361998
0.01967061 -0.00412760 0.03353289
0.01963103 -0.00412762 0.03349520
0.01959667 -0.00412750 0.03345360
0.01955187 -0.00412768 0.03341980
0.01951751 -0.00412755 0.03337821
0.01948313 -0.00412742 0.03333662
0.01944356 -0.00412745 0.03329893
0.01940399 -0.00412747 0.03326124
0.01936963 -0.00412734 0.03321965
-0.00695129 -0.00425228 0.01445230
-0.00699180 -0.00425231 0.01441371
-0.00703856 -0.00425250 0.01437845
-0.00708534 -0.00425269 0.01434319
-0.00711335 -0.00425239 0.01429794
-0.00714763 -0.00425225 0.01425602
-0.00717564 -0.00425195 0.01421078
-0.00721616 -0.00425198 0.01417219
-0.00724417 -0.00425168 0.01412695
-0.00727843 -0.00425155 0.01408505
-0.00731269 -0.00425141 0.01404314
0.01985119 -0.00418253 0.03373491
0.01981680 -0.00418240 0.03369331
0.01977722 -0.00418243 0.03365561
0.01973765 -0.00418246 0.03361791
0.01966889 -0.00418220 0.03353472
0.01962931 -0.00418222 0.03349703
0.01959495 -0.00418209 0.03345543
0.01955537 -0.00418212 0.03341773
0.01951580 -0.00418214 0.03338004
0.01948144 -0.00418202 0.03333846
0.01824181 -0.00398396 0.02063064
0.01820397 -0.00398398 0.02059459
0.01816612 -0.00398401 0.02055854
-0.00702783 -0.00430807 0.01437366
-0.00708084 -0.00430842 0.01434173
-0.00710887 -0.00430812 0.01429648
-0.00717114 -0.00430768 0.01420932
-0.00721790 -0.00430787 0.01417407
-0.00724591 -0.00430757 0.01412883
-0.00727391 -0.00430727 0.01408359
-0.00731443 -0.00430730 0.01404501
0.01984948 -0.00423714 0.03373674
0.01981510 -0.00423701 0.03369514
0.01977552 -0.00423703 0.03365744
0.01973593 -0.00423706 0.03361974
0.01966719 -0.00423680 0.03353655
0.01962762 -0.00423682 0.03349885
0.01959325 -0.00423669 0.03345726
0.01955366 -0.00423672 0.03341956
0.01951410 -0.00423674 0.03338187
0.02508968 -0.00386754 0.01775878
0.01827803 -0.00403614 0.02066844
0.01824018 -0.00403617 0.02063239
0.01820233 -0.00403619 0.02059634
0.01816449 -0.00403622 0.02056029
0.01812664 -0.00403624 0.02052425
0.01775825 -0.00403621 0.02015717
0.00786692 -0.00401930 0.00939104
-0.00711685 -0.00436418 0.01430169
-0.00715113 -0.00436404 0.01425977
0.01984778 -0.00429174 0.03373857
0.01981339 -0.00429161 0.03369697
0.01977381 -0.00429164 0.03365927
0.01973423 -0.00429166 0.03362157
0.01969986 -0.00429153 0.03357997
0.01831424 -0.00408833 0.02070624
0.01827639 -0.00408836 0.02067019
0.01824358 -0.00408823 0.02063082
0.01820573 -0.00408826 0.02059478
0.01816788 -0.00408828 0.02055873
0.01813003 -0.00408831 0.02052268
0.01809722 -0.00408819 0.02048332
0.00787061 -0.00407109 0.00938984
-0.00714360 -0.00442075 0.01431689
-0.00717162 -0.00442044 0.01427162
0.01973252 -0.00434627 0.03362340
0.01836051 -0.00414022 0.02073739
0.01831764 -0.00414040 0.02070466
0.01827979 -0.00414042 0.02066862
0.01824698 -0.00414030 0.02062926
0.01820913 -0.00414032 0.02059321
0.01817128 -0.00414035 0.02055717
0.01813343 -0.00414037 0.02052113
0.01810062 -0.00414025 0.02048177
0.01806277 -0.00414028 0.02044572
0.01802494 -0.00414030 0.02040967
0.01798709 -0.00414033 0.02037363
0.01779787 -0.00414045 0.02019341
0.01776002 -0.00414048 0.02015737
0.01772217 -0.00414050 0.02012132
-0.00562796 -0.00448713 0.01640627
-0.00719213 -0.00447686 0.01428350
0.01835887 -0.00419243 0.02073915
0.01831600 -0.00419261 0.02070642
0.01827815 -0.00419263 0.02067037
0.01824534 -0.00419251 0.02063101
0.01820749 -0.00419253 0.02059496
0.01816964 -0.00419256 0.02055892
0.01813181 -0.00419258 0.02052288
0.01809898 -0.00419246 0.02048352
0.01805611 -0.00419263 0.02045079
0.01802330 -0.00419251 0.02041142
0.01798545 -0.00419253 0.02037538
0.01790977 -0.00419258 0.02030329
0.01787192 -0.00419261 0.02026725
0.01783408 -0.00419263 0.02023121
0.01779120 -0.00419281 0.02019846
0.01775838 -0.00419268 0.02015912
0.01772055 -0.00419271 0.02012307
0.01767765 -0.00419288 0.02009033
-0.00861843 -0.00465220 0.01948249
0.01835725 -0.00424464 0.02074090
0.01831438 -0.00424482 0.02070817
0.01827653 -0.00424484 0.02067212
0.01824370 -0.00424472 0.02063276
0.01820587 -0.00424474 0.02059671
0.01816802 -0.00424477 0.02056067
0.01813017 -0.00424479 0.02052463
0.01809232 -0.00424482 0.02048858
0.01805449 -0.00424484 0.02045254
0.01801664 -0.00424487 0.02041649
0.01798382 -0.00424474 0.02037713
0.01782741 -0.00424499 0.02023626
0.01778956 -0.00424502 0.02020022
0.01775171 -0.00424504 0.02016418
0.01771891 -0.00424492 0.02012482
0.01767603 -0.00424509 0.02009209
0.01839346 -0.00429682 0.02077869
0.01836063 -0.00429670 0.02073932
0.01831274 -0.00429703 0.02070992
0.01827489 -0.00429705 0.02067387
0.01824208 -0.00429693 0.02063451
0.01820423 -0.00429695 0.02059846
0.01816136 -0.00429713 0.02056574
0.01812351 -0.00429715 0.02052969
0.01809070 -0.00429703 0.02049033
0.01804781 -0.00429720 0.02045760
0.01801500 -0.00429708 0.02041824
0.01797715 -0.00429710 0.02038220
0.01778792 -0.00429723 0.02020197
0.01775008 -0.00429725 0.02016593
0.01771224 -0.00429728 0.02012988
-0.00686078 -0.00464624 0.01471190
0.01839182 -0.00434903 0.02078044
0.01835901 -0.00434890 0.02074108
0.01831613 -0.00434909 0.02070835
0.01827325 -0.00434926 0.02067562
0.01824044 -0.00434914 0.02063626
0.01820259 -0.00434916 0.02060021
0.01815972 -0.00434934 0.02056749
0.01812187 -0.00434936 0.02053144
0.01808402 -0.00434939 0.02049539
0.01804619 -0.00434941 0.02045935
0.01800834 -0.00434944 0.02042330
0.01797552 -0.00434931 0.02038395
0.00237097 -0.00460640 0.01871490
0.00235443 -0.00460574 0.01866329
0.00798570 -0.00432930 0.00944380
-0.00694987 -0.00470240 0.01463990
0.01839019 -0.00440124 0.02078220
0.01835737 -0.00440111 0.02074283
0.01830947 -0.00440145 0.02071342
0.01827163 -0.00440147 0.02067737
0.01823881 -0.00440134 0.02063801
0.01820096 -0.00440137 0.02060197
0.01815809 -0.00440155 0.02056924
0.01812024 -0.00440157 0.02053319
0.01808240 -0.00440160 0.02049714
0.01804455 -0.00440163 0.02046110
0.01800670 -0.00440165 0.02042505
0.01796885 -0.00440168 0.02038901
0.00237507 -0.00466116 0.01871333
0.00235854 -0.00466049 0.01866171
0.00804299 -0.00438057 0.00946963
0.00800005 -0.00438075 0.00943673
0.01838855 -0.00445345 0.02078395
0.01835573 -0.00445332 0.02074458
0.01831287 -0.00445350 0.02071185
0.01826999 -0.00445368 0.02067912
0.01823717 -0.00445355 0.02063976
0.01819932 -0.00445358 0.02060372
0.01815645 -0.00445376 0.02057099
0.01811861 -0.00445379 0.02053494
0.01808076 -0.00445381 0.02049889
0.01804291 -0.00445384 0.02046285
0.01800507 -0.00445386 0.02042680
0.01796722 -0.00445389 0.02039076
0.00246462 -0.00471569 0.01878417
0.00242481 -0.00471572 0.01874625
0.00238499 -0.00471574 0.01870833
0.00236264 -0.00471524 0.01866014
0.01835410 -0.00450553 0.02074633
0.01830621 -0.00450587 0.02071692
0.01826836 -0.00450590 0.02068087
0.01823553 -0.00450576 0.02064151
0.01819266 -0.00450595 0.02060879
0.01815481 -0.00450597 0.02057274
0.01811698 -0.00450600 0.02053669
0.01807913 -0.00450602 0.02050065
0.01804128 -0.00450605 0.02046460
0.01800343 -0.00450607 0.02042855
0.00245710 -0.00477080 0.01878943
0.00242309 -0.00477065 0.01874809
0.00238328 -0.00477068 0.01871017
0.00235510 -0.00477035 0.01866540
0.01834744 -0.00455789 0.02075140
0.01830457 -0.00455808 0.02071867
0.01826672 -0.00455811 0.02068263
0.01823391 -0.00455797 0.02064326
0.01819104 -0.00455816 0.02061054
0.01815319 -0.00455818 0.02057450
0.01811534 -0.00455821 0.02053844
0.01807749 -0.00455823 0.02050240
0.01803964 -0.00455826 0.02046635
0.00246701 -0.00482537 0.01878443
0.00242719 -0.00482540 0.01874651
0.00238155 -0.00482561 0.01871201
0.00235339 -0.00482528 0.01866724
0.00726570 -0.00500395 0.02978651
0.00724229 -0.00500340 0.02973602
0.01826510 -0.00461032 0.02068438
0.01823227 -0.00461018 0.02064501
0.01818940 -0.00461037 0.02061229
0.01815155 -0.00461039 0.02057625
0.01811370 -0.00461042 0.02054019
0.01807587 -0.00461044 0.02050415
0.00237983 -0.00488054 0.01871385
0.00235167 -0.00488020 0.01866908
0.00726394 -0.00506020 0.02978840
0.00724053 -0.00505966 0.02973790
0.01826346 -0.00466253 0.02068613
0.01823065 -0.00466239 0.02064677
0.01818776 -0.00466258 0.02061404
0.01814993 -0.00466260 0.02057800
0.01811208 -0.00466263 0.02054194
0.01807423 -0.00466265 0.02050590
0.00730899 -0.00511757 0.02989132
0.00727978 -0.00511721 0.02984469
0.00722140 -0.00511649 0.02975144
0.01826182 -0.00471474 0.02068788
0.01822901 -0.00471460 0.02064852
0.01818614 -0.00471479 0.02061579
0.01814829 -0.00471481 0.02057975
0.01530342 -0.00524599 0.04131595
0.00738302 -0.00517398 0.02997480
0.00730143 -0.00517403 0.02989709
0.00727223 -0.00517367 0.02985047
0.00724883 -0.00517311 0.02979995
0.01534300 -0.00530302 0.04135726
0.01530723 -0.00530285 0.04131352
0.01528265 -0.00530227 0.04126109
0.00738704 -0.00523005 0.02997279
0.00735204 -0.00522988 0.02993005
0.00731125 -0.00522991 0.02989120
0.00727627 -0.00522974 0.02984846
0.00724708 -0.00522937 0.02980183
0.01355127 -0.00462924 0.00681699
0.01351482 -0.00462926 0.00678228
-0.01718180 -0.00536452 0.01231842
0.01534680 -0.00535987 0.04135483
0.01530544 -0.00535990 0.04131544
0.01528087 -0.00535932 0.04126301
0.00739108 -0.00528613 0.02997079
0.00735608 -0.00528595 0.02992804
0.00731529 -0.00528598 0.02988920
0.00728031 -0.00528581 0.02984645
0.00724532 -0.00528564 0.02980372
0.01354969 -0.00467951 0.00681867
0.01351325 -0.00467953 0.00678396
0.01347680 -0.00467956 0.00674926
-0.00441965 -0.00490554 0.00001400
0.01351167 -0.00472980 0.00678565
-0.00440976 -0.00495759 0.00001043
-0.00451793 -0.00495749 -0.00010075
0.01351011 -0.00478007 0.00678734
-0.00646880 -0.00537145 0.01505693
-0.00440563 -0.00500981 0.00000953
-0.00451379 -0.00500971 -0.00010166
-0.00644565 -0.00542655 0.01504537
-0.00671373 -0.00542752 0.01482719
0.00987174 -0.00508002 0.01245296
-0.00638819 -0.00548182 0.01507577
-0.00642870 -0.00548184 0.01503718
-0.00647546 -0.00548207 0.01500194
-0.00657520 -0.00548274 0.01493482
-0.00660948 -0.00548256 0.01489287
-0.00666872 -0.00548320 0.01486432
-0.00670925 -0.00548323 0.01482572
-0.00674978 -0.00548326 0.01478712
0.02402873 -0.00495765 0.01836461
0.02399206 -0.00495767 0.01832969
-0.00638995 -0.00553771 0.01507764
-0.00643668 -0.00553795 0.01504241
-0.00647721 -0.00553798 0.01500382
-0.00657071 -0.00553844 0.01493334
-0.00667046 -0.00553912 0.01486620
-0.00671099 -0.00553914 0.01482760
-0.00675152 -0.00553917 0.01478900
0.00596240 -0.00529114 0.01347214
0.01354025 -0.00498112 0.00682879
-0.00642598 -0.00559343 0.01503757
-0.00671898 -0.00559526 0.01483282
-0.00675328 -0.00559508 0.01479087
0.02011164 -0.00526691 0.02389220
0.02008356 -0.00526656 0.02384908
0.02005549 -0.00526622 0.02380597
0.02002244 -0.00526606 0.02376629
0.01998939 -0.00526590 0.02372662
-0.00671449 -0.00565096 0.01483135
0.02014805 -0.00531938 0.02393021
0.02011499 -0.00531922 0.02389053
0.02008691 -0.00531887 0.02384741
0.02005385 -0.00531871 0.02380773
0.02002080 -0.00531855 0.02376805
0.01998773 -0.00531839 0.02372838
0.01995468 -0.00531823 0.02368870
0.00307633 -0.00587454 0.03193048
0.02014142 -0.00537207 0.02393541
0.02010836 -0.00537191 0.02389573
0.02008028 -0.00537156 0.02385260
0.02004722 -0.00537140 0.02381293
0.02001415 -0.00537123 0.02377325
0.01998110 -0.00537107 0.02373357
0.01994805 -0.00537091 0.02369390
0.02014476 -0.00542439 0.02393373
0.02011169 -0.00542422 0.02389405
0.02007863 -0.00542406 0.02385437
0.02004558 -0.00542389 0.02381469
0.02001251 -0.00542373 0.02377500
0.01997946 -0.00542356 0.02373533
0.01994640 -0.00542340 0.02369566
0.02011505 -0.00547653 0.02389237
0.02008198 -0.00547636 0.02385269
0.02004893 -0.00547620 0.02381301
0.02001087 -0.00547622 0.02377677
0.01998281 -0.00547587 0.02373366
0.01994975 -0.00547570 0.02369399
0.01999709 -0.00532551 0.01722015
0.02010842 -0.00552922 0.02389757
0.02007535 -0.00552906 0.02385788
0.02004229 -0.00552889 0.02381821
0.02000923 -0.00552872 0.02377853
0.01997617 -0.00552855 0.02373885
0.02010678 -0.00558172 0.02389933
0.02007870 -0.00558136 0.02385621
0.02004065 -0.00558138 0.02381997
0.02000760 -0.00558121 0.02378029
0.01997453 -0.00558104 0.02374061
0.01998256 -0.00547931 0.01723158
0.01367162 -0.00538585 0.00709211
0.01367006 -0.00543614 0.00709379
0.01406886 -0.00638128 0.04228547
0.01405558 -0.00638010 0.04222372
0.00073367 -0.00622932 0.02295852
0.01405002 -0.00643950 0.04230064
0.01404242 -0.00643806 0.04223448
0.02006689 -0.00567016 0.01676624
0.01400656 -0.00649702 0.04226287
0.01399338 -0.00655501 0.04227363
0.01940127 -0.00615130 0.03135024
0.01937234 -0.00615089 0.03130526
0.01399158 -0.00661251 0.04227556
0.01398979 -0.00667000 0.04227749
0.01399367 -0.00672724 0.04227501
0.02071999 -0.00626437 0.02862481
0.01946919 -0.00602225 0.01798628
-0.00118674 -0.00674639 0.02593661
0.01665631 -0.00659108 0.03519828
0.02083434 -0.00631764 0.02873709
0.02079566 -0.00631767 0.02870025
0.02075699 -0.00631770 0.02866343
0.02072337 -0.00631750 0.02862295
0.02068976 -0.00631730 0.02858247
0.01946758 -0.00607365 0.01798800
-0.00118235 -0.00680325 0.02593472
0.01665457 -0.00664658 0.03520014
0.01946597 -0.00612505 0.01798972
0.02028129 -0.00639123 0.02694575
0.02025288 -0.00639080 0.02690195
0.00976440 -0.00700685 0.03786279
0.02027458 -0.00644454 0.02695110
0.02024114 -0.00644434 0.02691088
0.02030636 -0.00649783 0.02699312
0.02027291 -0.00649763 0.02695289
0.02023444 -0.00649765 0.02691624
0.00103261 -0.00702370 0.02781665
0.02039678 -0.00655018 0.02705746
0.02029966 -0.00655115 0.02699848
0.02026622 -0.00655094 0.02695824
0.02023278 -0.00655074 0.02691802
0.02019429 -0.00655077 0.02688136
0.02015580 -0.00655079 0.02684471
0.02011733 -0.00655082 0.02680806
0.02008389 -0.00655061 0.02676784
0.02003531 -0.00655110 0.02673832
0.02000189 -0.00655089 0.02669811
0.00102474 -0.00708102 0.02782243
0.01794507 -0.00629941 0.01535838
0.02046201 -0.00660367 0.02713970
0.02042857 -0.00660347 0.02709948
0.02039512 -0.00660326 0.02705924
0.02029800 -0.00660424 0.02700026
0.02026455 -0.00660403 0.02696002
0.02023111 -0.00660383 0.02691980
0.02019264 -0.00660385 0.02688314
0.02015415 -0.00660388 0.02684649
0.02011567 -0.00660390 0.02680984
0.02008224 -0.00660370 0.02676962
0.02003366 -0.00660419 0.02674010
0.02000527 -0.00660375 0.02669632
0.00910874 -0.00648717 0.01175883
0.02045532 -0.00665699 0.02714507
0.02029634 -0.00665733 0.02700204
0.02026290 -0.00665712 0.02696180
0.02022441 -0.00665715 0.02692515
0.02018593 -0.00665717 0.02688850
0.02015249 -0.00665697 0.02684827
0.02010897 -0.00665723 0.02681519
0.02007553 -0.00665702 0.02677497
0.02003200 -0.00665728 0.02674188
0.00961974 -0.00729642 0.03783140
0.00957811 -0.00729645 0.03779175
0.02048205 -0.00671053 0.02719068
0.02044863 -0.00671032 0.02715043
0.02033821 -0.00671016 0.02703689
0.02029468 -0.00671042 0.02700382
0.02026123 -0.00671021 0.02696358
0.02022779 -0.00671000 0.02692336
0.01808378 -0.00648703 0.01674321
0.00089741 -0.00706333 0.02085988
0.00961794 -0.00735385 0.03783333
0.02054715 -0.00679444 0.02836710
0.02051862 -0.00679399 0.02832302
0.02047536 -0.00676385 0.02719604
0.02044696 -0.00676341 0.02715221
0.02028796 -0.00676375 0.02700918
0.02022614 -0.00676309 0.02692514
0.01808217 -0.00653844 0.01674493
0.00093600 -0.00711894 0.02090016
0.02044530 -0.00681650 0.02715399
0.02032985 -0.00681658 0.02704403
0.02025792 -0.00681639 0.02696715
0.02043858 -0.00686983 0.02715936
0.02030297 -0.00687087 0.02706371
0.02026448 -0.00687089 0.02702706
0.02024616 -0.00686996 0.02697609
0.02043693 -0.00692292 0.02716114
0.02029122 -0.00692445 0.02707266
0.02025272 -0.00692447 0.02703600
0.02023946 -0.00692329 0.02698144
0.02021611 -0.00692260 0.02693405
0.02017763 -0.00692262 0.02689740
0.02009562 -0.00692291 0.02682766
0.02028452 -0.00697780 0.02707802
0.02024098 -0.00697806 0.02704494
0.02023275 -0.00697663 0.02698680
0.02020940 -0.00697593 0.02693941
0.02017093 -0.00697595 0.02690276
0.02013749 -0.00697574 0.02686252
0.02008890 -0.00697625 0.02683303
0.02006051 -0.00697579 0.02678922
0.01769146 -0.00721151 0.03082073
0.01765729 -0.00721129 0.03077939
0.02028286 -0.00703090 0.02707980
0.02023932 -0.00703117 0.02704672
0.02022605 -0.00702997 0.02699216
0.02020270 -0.00702926 0.02694477
0.02016926 -0.00702905 0.02690454
0.02013582 -0.00702882 0.02686431
0.02008723 -0.00702934 0.02683481
0.02005886 -0.00702888 0.02679100
0.01991899 -0.00700083 0.02568102
0.01764508 -0.00726619 0.03078881
0.02041684 -0.00708294 0.02717723
0.02038842 -0.00708248 0.02713341
0.02034490 -0.00708275 0.02710033
0.02028120 -0.00708401 0.02708158
0.02023260 -0.00708453 0.02705208
0.02021430 -0.00708356 0.02700109
0.02019599 -0.00708260 0.02695013
0.02016254 -0.00708238 0.02690990
0.02012911 -0.00708216 0.02686966
0.02008052 -0.00708268 0.02684016
0.02005215 -0.00708221 0.02679635
0.01991230 -0.00705396 0.02568632
0.01987398 -0.00705399 0.02564980
0.01982555 -0.00705450 0.02562033
0.01979730 -0.00705404 0.02557677
0.01976903 -0.00705358 0.02553322
0.01973070 -0.00705360 0.02549671
0.02042525 -0.00713554 0.02717185
0.02039179 -0.00713532 0.02713161
0.02035332 -0.00713535 0.02709495
0.02030474 -0.00713587 0.02706546
0.02025114 -0.00713664 0.02703954
0.02022272 -0.00713617 0.02699572
0.02019937 -0.00713545 0.02694833
0.02016594 -0.00713523 0.02690810
0.02013250 -0.00713500 0.02686787
0.02008390 -0.00713553 0.02683837
0.02005553 -0.00713506 0.02679456
0.01994395 -0.00710707 0.02572813
0.01991569 -0.00710660 0.02568457
0.01987734 -0.00710663 0.02564806
0.01983398 -0.00710690 0.02561506
0.01980571 -0.00710643 0.02557151
0.01977243 -0.00710621 0.02553148
0.01974417 -0.00710575 0.02548794
0.02042359 -0.00718864 0.02717363
0.02039519 -0.00718817 0.02712980
0.02035670 -0.00718819 0.02709315
0.02031316 -0.00718846 0.02706008
0.02026460 -0.00718899 0.02703058
0.02022611 -0.00718902 0.02699392
0.02019267 -0.00718879 0.02695369
0.02015921 -0.00718857 0.02691346
0.02013084 -0.00718809 0.02686965
0.02008225 -0.00718862 0.02684015
0.02005388 -0.00718815 0.02679634
0.01998568 -0.00715969 0.02576289
0.01994734 -0.00715971 0.02572638
0.01991403 -0.00715949 0.02568634
0.01988073 -0.00715927 0.02564631
0.01983233 -0.00715979 0.02561683
0.01980406 -0.00715932 0.02557328
0.01977077 -0.00715910 0.02553325
0.01974252 -0.00715863 0.02548971
0.01972434 -0.00715766 0.02543916
0.02034496 -0.00724179 0.02710210
0.02030647 -0.00724181 0.02706544
0.02025789 -0.00724234 0.02703594
0.02022445 -0.00724211 0.02699570
0.02018596 -0.00724214 0.02695905
0.02014747 -0.00724217 0.02692239
0.02011907 -0.00724169 0.02687859
0.02007554 -0.00724196 0.02684550
0.02001373 -0.00724126 0.02676147
0.02006572 -0.00721228 0.02583417
0.02003746 -0.00721180 0.02579060
0.01998402 -0.00721258 0.02576467
0.01994568 -0.00721260 0.02572815
0.01990734 -0.00721263 0.02569164
0.01987404 -0.00721241 0.02565160
0.01982564 -0.00721293 0.02562213
0.01979737 -0.00721246 0.02557857
0.01976407 -0.00721223 0.02553854
0.01973078 -0.00721201 0.02549852
0.01971765 -0.00721078 0.02544444
0.01625068 -0.00762821 0.03428457
0.02037674 -0.00729511 0.02714411
0.02033825 -0.00729513 0.02710745
0.02028969 -0.00729567 0.02707796
0.02024615 -0.00729595 0.02704488
0.02020766 -0.00729597 0.02700821
0.02016412 -0.00729625 0.02697514
0.02013572 -0.00729577 0.02693132
0.02010733 -0.00729529 0.02688751
0.02005874 -0.00729582 0.02685800
0.02003035 -0.00729534 0.02681420
0.02000701 -0.00729460 0.02676682
0.01996347 -0.00729488 0.02673375
0.01991993 -0.00729516 0.02670065
0.01986629 -0.00729595 0.02667470
0.02007917 -0.00726441 0.02582537
0.02006094 -0.00726343 0.02577476
0.01999746 -0.00726471 0.02575587
0.01994906 -0.00726524 0.02572640
0.01991576 -0.00726502 0.02568637
0.01987742 -0.00726504 0.02564985
0.01982398 -0.00726582 0.02562390
0.01979572 -0.00726534 0.02558035
0.01976746 -0.00726487 0.02553680
0.01973416 -0.00726464 0.02549677
0.01972103 -0.00726341 0.02544270
0.01634003 -0.00768299 0.03435493
0.01629449 -0.00768329 0.03432068
0.01625974 -0.00768304 0.03427847
0.02027290 -0.00734953 0.02709049
0.02021927 -0.00735032 0.02706456
0.02017571 -0.00735060 0.02703147
0.02013217 -0.00735088 0.02699839
0.02010880 -0.00735014 0.02695099
0.02007537 -0.00734991 0.02691074
0.02002677 -0.00735045 0.02688123
0.02001354 -0.00734920 0.02682669
0.01999019 -0.00734846 0.02677932
0.01994665 -0.00734874 0.02674623
0.02006936 -0.00731580 0.02576948
0.02001090 -0.00731684 0.02574708
0.01996252 -0.00731737 0.02571761
0.01992418 -0.00731739 0.02568109
0.01988080 -0.00731767 0.02564811
0.01973756 -0.00731727 0.02549503
0.01971938 -0.00731628 0.02544448
