ply
format ascii 1.0
element vertex 1432
property float x
property float y
property float z
end_header
-0.00805761 0.01241218 0.03687397
-0.00800687 0.01241231 0.03688638
-0.00796149 0.01241147 0.03690867
-0.00791344 0.01241111 0.03692600
-0.00786002 0.01241171 0.03693350
-0.00780392 0.01241280 0.03693604
-0.00775049 0.01241341 0.03694354
-0.00755022 0.01241342 0.03699814
-0.00750218 0.01241306 0.03701548
-0.00744604 0.01241415 0.03701805
-0.00738991 0.01241524 0.03702061
-0.00733647 0.01241585 0.03702810
-0.00728302 0.01241645 0.03703558
-0.00722957 0.01241706 0.03704308
-0.00717612 0.01241767 0.03705056
-0.00712267 0.01241827 0.03705807
-0.00707191 0.01241840 0.03707048
-0.00702386 0.01241804 0.03708783
-0.00697583 0.01241768 0.03710517
-0.00692780 0.01241732 0.03712250
-0.00688790 0.01241552 0.03715463
-0.00505047 0.01234377 0.03849928
-0.00252172 0.01219281 0.04096302
-0.00247457 0.01219247 0.04097998
-0.00238024 0.01219178 0.04101390
-0.00232747 0.01219237 0.04102139
-0.00228032 0.01219202 0.04103835
-0.00223317 0.01219167 0.04105531
-0.00218882 0.01219086 0.04107699
-0.00213887 0.01219098 0.04108922
-0.00208890 0.01219110 0.04110144
-0.00203894 0.01219123 0.04111366
0.00206362 0.01219433 0.04219882
0.00211062 0.01219398 0.04221573
0.00216055 0.01219411 0.04222795
0.00220753 0.01219376 0.04224487
0.00226042 0.01219435 0.04225239
0.00230740 0.01219400 0.04226930
0.00235143 0.01219319 0.04229090
0.00240432 0.01219378 0.04229842
0.00246017 0.01219484 0.04230127
0.00251602 0.01219590 0.04230411
0.00256299 0.01219555 0.04232103
0.00449317 0.01223584 0.04237570
0.00454322 0.01223596 0.04238795
0.00459328 0.01223608 0.04240020
0.00464333 0.01223620 0.04241244
0.00469036 0.01223585 0.04242940
0.00474647 0.01223692 0.04243225
0.00479349 0.01223657 0.04244919
0.00484355 0.01223669 0.04246144
0.00489968 0.01223776 0.04246430
0.00494973 0.01223788 0.04247655
0.00499979 0.01223800 0.04248881
0.00505594 0.01223906 0.04249167
0.00510600 0.01223919 0.04250392
0.00515606 0.01223931 0.04251617
0.00521221 0.01224037 0.04251903
0.00527143 0.01224191 0.04251720
0.00534590 0.01224580 0.04249190
0.00541735 0.01224922 0.04247127
0.00548273 0.01225169 0.04246004
0.00553895 0.01225276 0.04246292
0.00559211 0.01225335 0.04247047
0.00564834 0.01225442 0.04247335
0.00570150 0.01225501 0.04248090
0.00575775 0.01225608 0.04248376
0.00663377 0.01226937 0.04256725
0.00668702 0.01226996 0.04257482
0.00674336 0.01227103 0.04257771
0.00679661 0.01227162 0.04258528
0.00684987 0.01227222 0.04259285
0.00690002 0.01227234 0.04260513
0.00694708 0.01227199 0.04262210
0.00699723 0.01227211 0.04263438
0.00704116 0.01227129 0.04265605
0.00709443 0.01227188 0.04266362
0.00715081 0.01227295 0.04266651
0.00719785 0.01227260 0.04268347
0.00725735 0.01227414 0.04268165
0.02297273 0.01357196 0.03174040
0.02302705 0.01357209 0.03175369
0.02677364 0.01316453 0.03756316
0.02679914 0.01316097 0.03761198
-0.01570315 0.01363918 0.01971011
-0.01565869 0.01363706 0.01974727
-0.00790033 0.01255198 0.03465264
-0.00785167 0.01255161 0.03467026
-0.00780845 0.01255025 0.03469802
-0.00820102 0.01236109 0.03681920
-0.00815830 0.01235977 0.03684643
-0.00811291 0.01235894 0.03686871
-0.00805682 0.01236002 0.03687125
-0.00800340 0.01236063 0.03687875
-0.00795802 0.01235979 0.03690103
-0.00790996 0.01235943 0.03691837
-0.00785655 0.01236004 0.03692587
-0.00780044 0.01236112 0.03692842
-0.00774702 0.01236173 0.03693591
-0.00754673 0.01236174 0.03699049
-0.00749599 0.01236187 0.03700292
-0.00744256 0.01236247 0.03701042
-0.00733028 0.01236464 0.03701553
-0.00727953 0.01236477 0.03702796
-0.00722338 0.01236585 0.03703052
-0.00717262 0.01236598 0.03704293
-0.00711916 0.01236658 0.03705043
-0.00706841 0.01236671 0.03706284
-0.00702037 0.01236635 0.03708020
-0.00697233 0.01236599 0.03709753
-0.00692429 0.01236563 0.03711489
-0.00514791 0.01229210 0.03846702
-0.00479427 0.01225876 0.03895648
-0.00262369 0.01214073 0.04094063
-0.00252376 0.01214098 0.04096510
-0.00228516 0.01213972 0.04104514
-0.00209094 0.01213928 0.04110350
-0.00199384 0.01213905 0.04113267
-0.00194671 0.01213871 0.04114963
0.00211139 0.01214265 0.04221307
0.00215838 0.01214231 0.04222998
0.00220831 0.01214243 0.04224220
0.00225825 0.01214255 0.04225442
0.00230523 0.01214220 0.04227132
0.00235222 0.01214186 0.04228823
0.00240214 0.01214198 0.04230045
0.00245798 0.01214304 0.04230329
0.00251383 0.01214409 0.04230613
0.00449093 0.01218391 0.04237773
0.00454098 0.01218403 0.04238997
0.00459103 0.01218416 0.04240222
0.00464109 0.01218428 0.04241447
0.00469114 0.01218440 0.04242672
0.00474422 0.01218499 0.04243428
0.00479124 0.01218464 0.04245122
0.00484433 0.01218523 0.04245877
0.00489742 0.01218583 0.04246631
0.00494748 0.01218595 0.04247856
0.00499754 0.01218607 0.04249081
0.00505368 0.01218713 0.04249369
0.00510374 0.01218725 0.04250593
0.00515075 0.01218691 0.04252288
0.00520386 0.01218750 0.04253043
0.00525392 0.01218762 0.04254268
0.00540897 0.01219631 0.04248269
0.00548352 0.01220019 0.04245737
0.00553667 0.01220078 0.04246493
0.00559289 0.01220185 0.04246779
0.00564606 0.01220244 0.04247536
0.00569922 0.01220303 0.04248293
0.00663765 0.01221828 0.04255988
0.00669088 0.01221888 0.04256746
0.00674724 0.01221994 0.04257034
0.00680359 0.01222100 0.04257321
0.00685685 0.01222160 0.04258077
0.00690702 0.01222172 0.04259305
0.00695407 0.01222137 0.04261003
0.00700422 0.01222149 0.04262230
0.00704817 0.01222068 0.04264398
0.00710454 0.01222174 0.04264686
0.00716092 0.01222281 0.04264972
0.00721420 0.01222340 0.04265730
-0.00789681 0.01249965 0.03464483
-0.00784815 0.01249929 0.03466247
-0.00780221 0.01249843 0.03468516
-0.00819755 0.01230941 0.03681158
-0.00815483 0.01230809 0.03683878
-0.00810677 0.01230774 0.03685613
-0.00804800 0.01230930 0.03685376
-0.00799726 0.01230942 0.03686617
-0.00795187 0.01230859 0.03688845
-0.00790381 0.01230823 0.03690580
-0.00785039 0.01230884 0.03691329
-0.00779697 0.01230944 0.03692079
-0.00774354 0.01231004 0.03692825
-0.00754056 0.01231054 0.03697793
-0.00749251 0.01231018 0.03699528
-0.00743907 0.01231079 0.03700276
-0.00738293 0.01231187 0.03700532
-0.00732679 0.01231295 0.03700788
-0.00727333 0.01231356 0.03701538
-0.00721718 0.01231464 0.03701794
-0.00716642 0.01231476 0.03703037
-0.00711567 0.01231489 0.03704280
-0.00706220 0.01231549 0.03705028
-0.00701687 0.01231466 0.03707255
-0.00697154 0.01231382 0.03709482
-0.00692350 0.01231346 0.03711218
-0.00688631 0.01231119 0.03714921
-0.00479348 0.01220698 0.03895378
-0.00257295 0.01208949 0.04095019
-0.00252578 0.01208915 0.04096715
-0.00248143 0.01208834 0.04098885
-0.00233996 0.01208731 0.04103971
-0.00229000 0.01208743 0.04105192
0.00206223 0.01209119 0.04219817
0.00211217 0.01209131 0.04221040
0.00215916 0.01209097 0.04222731
0.00220615 0.01209063 0.04224421
0.00225902 0.01209122 0.04225175
0.00230601 0.01209087 0.04226865
0.00235299 0.01209053 0.04228556
0.00240292 0.01209065 0.04229778
0.00245877 0.01209170 0.04230063
0.00251757 0.01209322 0.04229878
0.00438858 0.01213174 0.04235525
0.00443561 0.01213140 0.04237220
0.00448868 0.01213199 0.04237974
0.00453874 0.01213211 0.04239199
0.00459181 0.01213270 0.04239956
0.00463884 0.01213236 0.04241648
0.00468889 0.01213248 0.04242873
0.00474197 0.01213307 0.04243630
0.00479203 0.01213319 0.04244855
0.00484208 0.01213331 0.04246080
0.00489517 0.01213390 0.04246834
0.00494522 0.01213402 0.04248059
0.00499528 0.01213415 0.04249284
0.00504837 0.01213474 0.04250039
0.00509843 0.01213486 0.04251264
0.00514849 0.01213498 0.04252489
0.00520159 0.01213557 0.04253246
0.00525165 0.01213569 0.04254471
0.00532611 0.01213955 0.04251941
0.00539449 0.01214248 0.04250349
0.00553745 0.01214928 0.04246226
0.00559061 0.01214987 0.04246983
0.00564684 0.01215093 0.04247268
0.00570001 0.01215152 0.04248025
0.00575624 0.01215258 0.04248311
0.00664151 0.01216720 0.04255252
0.00669476 0.01216779 0.04256009
0.00675112 0.01216885 0.04256295
0.00680748 0.01216991 0.04256581
0.00686074 0.01217050 0.04257339
0.00691400 0.01217110 0.04258096
0.00696106 0.01217075 0.04259793
0.00701433 0.01217134 0.04260552
0.00706138 0.01217099 0.04262249
0.00711466 0.01217159 0.04263006
0.00716793 0.01217218 0.04263765
0.00722432 0.01217324 0.04264052
0.00727761 0.01217383 0.04264811
0.00733089 0.01217442 0.04265569
-0.01570407 0.01352545 0.01971015
-0.01565698 0.01352390 0.01974139
-0.00789058 0.01244782 0.03463195
-0.00784191 0.01244745 0.03464958
-0.00779326 0.01244709 0.03466722
-0.00819676 0.01225724 0.03680886
-0.00815137 0.01225641 0.03683116
-0.00810063 0.01225653 0.03684357
-0.00804453 0.01225761 0.03684612
-0.00799646 0.01225726 0.03686346
-0.00794841 0.01225691 0.03688082
-0.00790302 0.01225607 0.03690308
-0.00784692 0.01225715 0.03690565
-0.00779618 0.01225728 0.03691807
-0.00774275 0.01225788 0.03692555
-0.00753977 0.01225837 0.03697522
-0.00749172 0.01225802 0.03699258
-0.00743828 0.01225862 0.03700006
-0.00738214 0.01225970 0.03700261
-0.00732870 0.01226030 0.03701012
-0.00727254 0.01226138 0.03701267
-0.00721368 0.01226294 0.03701030
-0.00716293 0.01226306 0.03702272
-0.00711488 0.01226271 0.03704008
-0.00706412 0.01226283 0.03705250
-0.00701608 0.01226248 0.03706984
-0.00696804 0.01226213 0.03708719
-0.00262213 0.01203800 0.04093529
-0.00257216 0.01203812 0.04094753
-0.00252500 0.01203778 0.04096448
-0.00248065 0.01203697 0.04098618
-0.00243630 0.01203617 0.04100785
-0.00234199 0.01203549 0.04104176
0.00206006 0.01203939 0.04220019
0.00211000 0.01203952 0.04221243
0.00215994 0.01203964 0.04222465
0.00220692 0.01203930 0.04224154
0.00225981 0.01203988 0.04224908
0.00230679 0.01203954 0.04226598
0.00235377 0.01203920 0.04228289
0.00240370 0.01203932 0.04229511
0.00245954 0.01204037 0.04229796
0.00251539 0.01204142 0.04230079
0.00256533 0.01204154 0.04231301
0.00433327 0.01207924 0.04234973
0.00438935 0.01208029 0.04235257
0.00443639 0.01207995 0.04236953
0.00448946 0.01208053 0.04237707
0.00453951 0.01208066 0.04238932
0.00459259 0.01208124 0.04239687
0.00463962 0.01208090 0.04241382
0.00468967 0.01208102 0.04242606
0.00474275 0.01208161 0.04243362
0.00478977 0.01208127 0.04245056
0.00483982 0.01208139 0.04246281
0.00489595 0.01208244 0.04246567
0.00494600 0.01208257 0.04247792
0.00499301 0.01208222 0.04249486
0.00504611 0.01208281 0.04250242
0.00509617 0.01208293 0.04251467
0.00514622 0.01208306 0.04252692
0.00519933 0.01208364 0.04253447
0.00524938 0.01208377 0.04254672
0.00532078 0.01208715 0.04252613
0.00553823 0.01209778 0.04245958
0.00559445 0.01209883 0.04246244
0.00564761 0.01209942 0.04247001
0.00570385 0.01210048 0.04247288
0.00658906 0.01211505 0.04254225
0.00664540 0.01211611 0.04254512
0.00669865 0.01211670 0.04255269
0.00675500 0.01211776 0.04255557
0.00681136 0.01211882 0.04255843
0.00686463 0.01211941 0.04256602
0.00691479 0.01211953 0.04257828
0.00696495 0.01211965 0.04259056
0.00701822 0.01212024 0.04259814
0.00706528 0.01211990 0.04261512
0.00712166 0.01212095 0.04261799
0.00717182 0.01212108 0.04263027
0.00722822 0.01212213 0.04263315
0.00728150 0.01212273 0.04264073
0.00733479 0.01212332 0.04264830
0.01025902 0.01226332 0.04178782
-0.01570322 0.01346887 0.01970722
-0.01565612 0.01346733 0.01973845
-0.00783840 0.01239512 0.03464179
-0.00778702 0.01239525 0.03465436
-0.00819331 0.01220555 0.03680120
-0.00814523 0.01220520 0.03681856
-0.00809181 0.01220580 0.03682604
-0.00804106 0.01220592 0.03683846
-0.00794493 0.01220522 0.03687316
-0.00789687 0.01220487 0.03689052
-0.00784076 0.01220594 0.03689307
-0.00779001 0.01220607 0.03690550
-0.00773658 0.01220667 0.03691298
-0.00758703 0.01220656 0.03695516
-0.00753628 0.01220669 0.03696759
-0.00748824 0.01220633 0.03698492
-0.00743210 0.01220741 0.03698748
-0.00737326 0.01220896 0.03698513
-0.00731710 0.01221004 0.03698769
-0.00725824 0.01221159 0.03698532
-0.00720208 0.01221267 0.03698789
-0.00715403 0.01221232 0.03700523
-0.00710868 0.01221149 0.03702751
-0.00706062 0.01221113 0.03704485
-0.00701258 0.01221078 0.03706221
-0.00696453 0.01221043 0.03707954
-0.00691921 0.01220960 0.03710182
0.00186405 0.01198804 0.04214396
0.00191104 0.01198770 0.04216087
0.00195803 0.01198736 0.04217778
0.00201091 0.01198794 0.04218531
0.00205790 0.01198760 0.04220222
0.00210784 0.01198772 0.04221444
0.00215777 0.01198784 0.04222666
0.00220770 0.01198797 0.04223888
0.00225763 0.01198809 0.04225110
0.00230757 0.01198821 0.04226331
0.00235455 0.01198787 0.04228023
0.00240447 0.01198799 0.04229245
0.00246032 0.01198904 0.04229529
0.00251617 0.01199008 0.04229812
0.00256611 0.01199021 0.04231034
0.00433102 0.01202732 0.04235175
0.00438711 0.01202837 0.04235460
0.00443716 0.01202849 0.04236685
0.00449024 0.01202908 0.04237440
0.00454029 0.01202920 0.04238665
0.00459034 0.01202933 0.04239890
0.00464039 0.01202945 0.04241113
0.00468741 0.01202910 0.04242809
0.00474050 0.01202969 0.04243563
0.00479055 0.01202981 0.04244788
0.00484060 0.01202994 0.04246013
0.00489369 0.01203052 0.04246770
0.00494375 0.01203064 0.04247995
0.00499380 0.01203077 0.04249220
0.00504386 0.01203089 0.04250444
0.00509695 0.01203148 0.04251200
0.00514700 0.01203160 0.04252425
0.00520010 0.01203218 0.04253179
0.00525016 0.01203231 0.04254404
0.00531852 0.01203522 0.04252814
0.00554207 0.01204674 0.04245222
0.00559829 0.01204779 0.04245506
0.00565146 0.01204838 0.04246263
0.00570770 0.01204943 0.04246549
0.00658984 0.01206350 0.04253957
0.00664618 0.01206455 0.04254246
0.00670253 0.01206561 0.04254532
0.00675888 0.01206666 0.04254818
0.00681525 0.01206772 0.04255106
0.00686851 0.01206831 0.04255863
0.00691868 0.01206843 0.04257090
0.00696884 0.01206855 0.04258318
0.00702211 0.01206914 0.04259075
0.00706917 0.01206880 0.04260774
0.00712244 0.01206938 0.04261531
0.00717571 0.01206997 0.04262289
0.00722900 0.01207056 0.04263046
0.00728540 0.01207162 0.04263334
0.00733557 0.01207174 0.04264562
-0.01569442 0.01341396 0.01968649
-0.01564732 0.01341242 0.01971774
-0.00783760 0.01234231 0.03463905
-0.00824593 0.01215278 0.03679103
-0.00818984 0.01215386 0.03679357
-0.00814444 0.01215303 0.03681585
-0.00809102 0.01215363 0.03682333
-0.00803760 0.01215423 0.03683083
-0.00798953 0.01215388 0.03684817
-0.00789608 0.01215270 0.03688781
-0.00783997 0.01215378 0.03689037
-0.00778653 0.01215437 0.03689784
-0.00773311 0.01215497 0.03690533
-0.00763161 0.01215522 0.03693017
-0.00758355 0.01215487 0.03694752
-0.00753280 0.01215499 0.03695993
-0.00748475 0.01215464 0.03697729
-0.00742862 0.01215572 0.03697985
-0.00736976 0.01215726 0.03697747
-0.00731362 0.01215834 0.03698003
-0.00725745 0.01215941 0.03698261
-0.00719859 0.01216096 0.03698024
-0.00715324 0.01216013 0.03700252
-0.00710788 0.01215931 0.03702480
-0.00705983 0.01215896 0.03704214
-0.00701450 0.01215813 0.03706442
-0.00696645 0.01215778 0.03708176
-0.00692113 0.01215696 0.03710404
-0.00688665 0.01215423 0.03714599
-0.00513375 0.01208636 0.03843679
-0.00503826 0.01208567 0.03847122
0.00171501 0.01193633 0.04210463
0.00185895 0.01193578 0.04215068
0.00190888 0.01193590 0.04216290
0.00195587 0.01193556 0.04217981
0.00200580 0.01193569 0.04219203
0.00205573 0.01193581 0.04220425
0.00210567 0.01193593 0.04221646
0.00215266 0.01193559 0.04223336
0.00220259 0.01193571 0.04224558
0.00225546 0.01193630 0.04225312
0.00230245 0.01193596 0.04227002
0.00235238 0.01193608 0.04228224
0.00240231 0.01193620 0.04229446
0.00245519 0.01193678 0.04230200
0.00250807 0.01193737 0.04230952
0.00432577 0.01197495 0.04235847
0.00438488 0.01197646 0.04235663
0.00443492 0.01197658 0.04236887
0.00448800 0.01197716 0.04237643
0.00453804 0.01197729 0.04238868
0.00459112 0.01197787 0.04239622
0.00464118 0.01197799 0.04240847
0.00468820 0.01197765 0.04242542
0.00473825 0.01197778 0.04243767
0.00478830 0.01197790 0.04244991
0.00483835 0.01197802 0.04246216
0.00489144 0.01197860 0.04246971
0.00494149 0.01197873 0.04248196
0.00499154 0.01197885 0.04249421
0.00504159 0.01197897 0.04250646
0.00509468 0.01197956 0.04251401
0.00514474 0.01197968 0.04252626
0.00519784 0.01198026 0.04253381
0.00524789 0.01198039 0.04254606
0.00531015 0.01198236 0.04253955
0.00554285 0.01199523 0.04244953
0.00559907 0.01199628 0.04245239
0.00565530 0.01199733 0.04245526
0.00571154 0.01199838 0.04245812
0.00653738 0.01201135 0.04252931
0.00659371 0.01201241 0.04253221
0.00664696 0.01201299 0.04253978
0.00670331 0.01201404 0.04254264
0.00675967 0.01201510 0.04254550
0.00681292 0.01201568 0.04255307
0.00686929 0.01201674 0.04255594
0.00691946 0.01201686 0.04256822
0.00696962 0.01201698 0.04258050
0.00702289 0.01201757 0.04258807
0.00706995 0.01201723 0.04260506
0.00712322 0.01201781 0.04261263
0.00717650 0.01201840 0.04262021
0.00722978 0.01201899 0.04262780
0.00728307 0.01201957 0.04263537
0.00733636 0.01202016 0.04264294
-0.01568827 0.01335848 0.01967169
-0.01564117 0.01335695 0.01970294
-0.01299854 0.01275809 0.02760524
-0.01224586 0.01276196 0.02776504
-0.00824247 0.01210109 0.03678337
-0.00818637 0.01210216 0.03678592
-0.00814097 0.01210134 0.03680821
-0.00809023 0.01210146 0.03682062
-0.00803681 0.01210206 0.03682812
-0.00798874 0.01210171 0.03684546
-0.00789529 0.01210054 0.03688510
-0.00783917 0.01210161 0.03688766
-0.00778843 0.01210173 0.03690007
-0.00773500 0.01210233 0.03690755
-0.00768694 0.01210198 0.03692491
-0.00763082 0.01210305 0.03692746
-0.00758276 0.01210270 0.03694481
-0.00753201 0.01210283 0.03695722
-0.00748396 0.01210248 0.03697458
-0.00743052 0.01210307 0.03698206
-0.00737437 0.01210414 0.03698462
-0.00732093 0.01210474 0.03699212
-0.00726477 0.01210581 0.03699468
-0.00720320 0.01210783 0.03698738
-0.00715514 0.01210748 0.03700474
-0.00711251 0.01210618 0.03703195
-0.00706446 0.01210583 0.03704928
-0.00701912 0.01210501 0.03707156
-0.00689129 0.01210113 0.03715314
-0.00513296 0.01203445 0.03843409
-0.00508521 0.01203411 0.03845130
0.00190672 0.01188411 0.04216492
0.00230028 0.01188417 0.04227205
0.00234725 0.01188383 0.04228896
0.00239718 0.01188396 0.04230118
0.00432052 0.01192258 0.04236518
0.00438263 0.01192455 0.04235865
0.00443570 0.01192513 0.04236619
0.00448877 0.01192571 0.04237375
0.00453883 0.01192583 0.04238600
0.00458887 0.01192596 0.04239824
0.00463893 0.01192608 0.04241049
0.00468595 0.01192574 0.04242744
0.00473903 0.01192632 0.04243499
0.00478908 0.01192645 0.04244724
0.00483610 0.01192611 0.04246418
0.00488918 0.01192669 0.04247174
0.00493923 0.01192681 0.04248399
0.00498928 0.01192693 0.04249623
0.00504237 0.01192752 0.04250377
0.00509243 0.01192764 0.04251602
0.00514248 0.01192776 0.04252827
0.00519557 0.01192835 0.04253584
0.00524563 0.01192847 0.04254809
0.00530482 0.01192997 0.04254626
0.00559986 0.01194477 0.04244971
0.00565915 0.01194628 0.04244788
0.00571539 0.01194733 0.04245074
0.00654125 0.01196026 0.04252194
0.00659759 0.01196131 0.04252481
0.00665084 0.01196190 0.04253238
0.00670718 0.01196295 0.04253526
0.00676045 0.01196353 0.04254282
0.00681681 0.01196458 0.04254569
0.00687008 0.01196517 0.04255328
0.00692334 0.01196575 0.04256085
0.00697040 0.01196541 0.04257782
0.00702367 0.01196600 0.04258540
0.00707383 0.01196612 0.04259768
0.00712711 0.01196671 0.04260525
0.00717728 0.01196683 0.04261753
0.00723368 0.01196788 0.04262041
0.00728697 0.01196846 0.04262798
0.00733714 0.01196859 0.04264025
0.01784399 0.01259894 0.03796332
-0.01563766 0.01330092 0.01969407
-0.01299771 0.01270360 0.02760240
-0.01256839 0.01270566 0.02769528
-0.01251539 0.01270579 0.02770825
-0.01246238 0.01270592 0.02772123
-0.01240938 0.01270605 0.02773419
-0.01235637 0.01270618 0.02774717
-0.01230071 0.01270682 0.02775468
-0.01224770 0.01270695 0.02776766
-0.01219470 0.01270708 0.02778062
-0.01214169 0.01270721 0.02779360
-0.00823901 0.01204939 0.03677572
-0.00818291 0.01205046 0.03677827
-0.00813751 0.01204964 0.03680056
-0.00808676 0.01204976 0.03681299
-0.00803601 0.01204989 0.03682540
-0.00798795 0.01204954 0.03684275
-0.00789181 0.01204885 0.03687745
-0.00783838 0.01204944 0.03688495
-0.00778764 0.01204957 0.03689736
-0.00773152 0.01205063 0.03689992
-0.00768346 0.01205029 0.03691725
-0.00762733 0.01205135 0.03691982
-0.00757927 0.01205100 0.03693718
-0.00752853 0.01205113 0.03694959
-0.00748047 0.01205078 0.03696693
-0.00742703 0.01205138 0.03697443
-0.00737089 0.01205244 0.03697699
-0.00731743 0.01205304 0.03698447
-0.00725858 0.01205458 0.03698212
-0.00719971 0.01205611 0.03697975
-0.00715165 0.01205577 0.03699709
-0.00710630 0.01205495 0.03701937
-0.00705825 0.01205460 0.03703672
-0.00701292 0.01205378 0.03705899
-0.00696487 0.01205343 0.03707634
-0.00691955 0.01205262 0.03709862
0.00234509 0.01183205 0.04229099
0.00263871 0.01183187 0.04237364
0.00383689 0.01185731 0.04239599
0.00388087 0.01185652 0.04241762
0.00431526 0.01187022 0.04237190
0.00437737 0.01187218 0.04236537
0.00443346 0.01187322 0.04236822
0.00448653 0.01187380 0.04237577
0.00453658 0.01187392 0.04238802
0.00458663 0.01187404 0.04240026
0.00463971 0.01187463 0.04240783
0.00468673 0.01187429 0.04242475
0.00473678 0.01187441 0.04243700
0.00478683 0.01187453 0.04244925
0.00483688 0.01187466 0.04246150
0.00488996 0.01187524 0.04246907
0.00494001 0.01187536 0.04248130
0.00498702 0.01187502 0.04249825
0.00504011 0.01187560 0.04250580
0.00509016 0.01187573 0.04251805
0.00514021 0.01187585 0.04253030
0.00519636 0.01187689 0.04253317
0.00524336 0.01187655 0.04255010
0.00529951 0.01187759 0.04255296
0.00560369 0.01189372 0.04244234
0.00566299 0.01189523 0.04244050
0.00654512 0.01190917 0.04251456
0.00660146 0.01191022 0.04251744
0.00665472 0.01191080 0.04252501
0.00670797 0.01191138 0.04253258
0.00676433 0.01191243 0.04253544
0.00682069 0.01191348 0.04253832
0.00687396 0.01191406 0.04254588
0.00692723 0.01191464 0.04255347
0.00697429 0.01191430 0.04257044
0.00702756 0.01191489 0.04257803
0.00707773 0.01191501 0.04259029
0.00713101 0.01191560 0.04259787
0.00718118 0.01191572 0.04261015
0.00723758 0.01191677 0.04261301
0.00729086 0.01191735 0.04262060
0.01784839 0.01254577 0.03795548
-0.01299689 0.01264911 0.02759957
-0.01277959 0.01265065 0.02764057
-0.01267093 0.01265143 0.02766106
-0.01262058 0.01265104 0.02767947
-0.01256756 0.01265117 0.02769245
-0.01251456 0.01265130 0.02770542
-0.01246156 0.01265143 0.02771839
-0.01240590 0.01265207 0.02772591
-0.01235289 0.01265220 0.02773888
-0.01229989 0.01265233 0.02775185
-0.01224422 0.01265297 0.02775937
-0.01219121 0.01265310 0.02777234
-0.01213820 0.01265323 0.02778532
-0.00817945 0.01199876 0.03677063
-0.00813404 0.01199794 0.03679292
-0.00808329 0.01199806 0.03680533
-0.00803522 0.01199772 0.03682269
-0.00798715 0.01199737 0.03684004
-0.00793640 0.01199750 0.03685245
-0.00788834 0.01199715 0.03686981
-0.00783491 0.01199775 0.03687729
-0.00778148 0.01199834 0.03688478
-0.00772536 0.01199940 0.03688735
-0.00767729 0.01199906 0.03690469
-0.00762116 0.01200012 0.03690724
-0.00757041 0.01200024 0.03691967
-0.00752235 0.01199990 0.03693701
-0.00747429 0.01199955 0.03695436
-0.00741815 0.01200062 0.03695692
-0.00735660 0.01200262 0.03694962
-0.00730584 0.01200274 0.03696205
-0.00725238 0.01200334 0.03696953
-0.00719621 0.01200440 0.03697211
-0.00714274 0.01200499 0.03697959
-0.00709739 0.01200418 0.03700188
-0.00704934 0.01200383 0.03701922
-0.00700670 0.01200255 0.03704643
-0.00695866 0.01200220 0.03706378
-0.00691604 0.01200092 0.03709097
-0.00180451 0.01176163 0.04138079
-0.00111451 0.01176198 0.04156585
0.00209918 0.01178057 0.04222253
0.00229593 0.01178061 0.04227610
0.00234586 0.01178073 0.04228832
0.00239578 0.01178085 0.04230052
0.00244571 0.01178097 0.04231274
0.00254261 0.01178076 0.04234186
0.00259253 0.01178088 0.04235408
0.00263949 0.01178055 0.04237098
0.00268645 0.01178022 0.04238789
0.00273934 0.01178079 0.04239541
0.00383766 0.01180592 0.04239333
0.00388466 0.01180558 0.04241025
0.00393465 0.01180570 0.04242249
0.00431000 0.01181786 0.04237862
0.00436909 0.01181936 0.04237679
0.00442820 0.01182085 0.04237494
0.00448429 0.01182189 0.04237780
0.00453736 0.01182247 0.04238534
0.00458438 0.01182214 0.04240230
0.00464049 0.01182317 0.04240514
0.00468750 0.01182284 0.04242209
0.00473756 0.01182296 0.04243433
0.00478760 0.01182308 0.04244658
0.00483765 0.01182321 0.04245883
0.00489074 0.01182379 0.04246639
0.00494079 0.01182391 0.04247864
0.00499084 0.01182403 0.04249088
0.00504393 0.01182461 0.04249842
0.00509398 0.01182473 0.04251069
0.00514404 0.01182485 0.04252292
0.00519713 0.01182543 0.04253049
0.00525023 0.01182602 0.04253805
0.00530334 0.01182660 0.04254560
0.00561060 0.01184313 0.04243027
0.00566990 0.01184463 0.04242842
0.00654590 0.01185761 0.04251190
0.00660534 0.01185912 0.04251006
0.00665859 0.01185970 0.04251763
0.00671185 0.01186028 0.04252519
0.00676821 0.01186132 0.04252806
0.00682148 0.01186191 0.04253563
0.00687474 0.01186249 0.04254322
0.00692490 0.01186261 0.04255548
0.00697507 0.01186273 0.04256776
0.00702834 0.01186332 0.04257534
0.00707851 0.01186344 0.04258762
0.00713179 0.01186402 0.04259519
0.00718507 0.01186460 0.04260278
0.00724147 0.01186565 0.04260564
0.00729164 0.01186577 0.04261792
0.00734493 0.01186635 0.04262550
-0.01299606 0.01259463 0.02759674
-0.01294042 0.01259527 0.02760425
-0.01277877 0.01259616 0.02763774
-0.01267011 0.01259693 0.02765822
-0.01261975 0.01259655 0.02767664
-0.01256674 0.01259668 0.02768962
-0.01251373 0.01259681 0.02770258
-0.01246073 0.01259694 0.02771556
-0.01240508 0.01259758 0.02772307
-0.01235206 0.01259771 0.02773605
-0.01229906 0.01259784 0.02774902
-0.01224339 0.01259848 0.02775654
-0.01219038 0.01259861 0.02776951
-0.01213737 0.01259874 0.02778248
-0.00817598 0.01194705 0.03676298
-0.00813058 0.01194624 0.03678527
-0.00807983 0.01194636 0.03679769
-0.00803176 0.01194602 0.03681505
-0.00798368 0.01194567 0.03683241
-0.00793294 0.01194580 0.03684482
-0.00788755 0.01194499 0.03686711
-0.00783144 0.01194605 0.03686966
-0.00777263 0.01194757 0.03686728
-0.00771650 0.01194863 0.03686982
-0.00766844 0.01194829 0.03688718
-0.00761230 0.01194935 0.03688975
-0.00756693 0.01194854 0.03691202
-0.00751617 0.01194866 0.03692445
-0.00746811 0.01194832 0.03694180
-0.00740927 0.01194984 0.03693943
-0.00735041 0.01195137 0.03693706
-0.00730234 0.01195103 0.03695440
-0.00724889 0.01195162 0.03696190
-0.00719000 0.01195315 0.03695951
-0.00713654 0.01195374 0.03696702
-0.00708847 0.01195340 0.03698437
-0.00704313 0.01195259 0.03700666
-0.00700049 0.01195131 0.03703387
-0.00180938 0.01170943 0.04138756
-0.00170395 0.01171059 0.04140253
-0.00154860 0.01171186 0.04142974
-0.00149870 0.01171198 0.04144196
-0.00111374 0.01171069 0.04156318
-0.00107806 0.01170855 0.04159892
0.00209701 0.01172880 0.04222456
0.00214694 0.01172892 0.04223678
0.00224679 0.01172916 0.04226121
0.00229377 0.01172883 0.04227811
0.00234368 0.01172895 0.04229032
0.00239361 0.01172907 0.04230253
0.00244354 0.01172920 0.04231475
0.00254043 0.01172899 0.04234388
0.00258739 0.01172865 0.04236078
0.00263731 0.01172878 0.04237300
0.00268723 0.01172890 0.04238522
0.00274011 0.01172947 0.04239275
0.00279004 0.01172960 0.04240496
0.00378844 0.01175439 0.04237843
0.00383544 0.01175406 0.04239535
0.00388243 0.01175373 0.04241228
0.00393242 0.01175385 0.04242451
0.00430475 0.01176552 0.04238534
0.00436383 0.01176701 0.04238349
0.00442294 0.01176850 0.04238164
0.00447600 0.01176907 0.04238921
0.00452907 0.01176965 0.04239677
0.00457911 0.01176978 0.04240902
0.00463521 0.01177081 0.04241186
0.00468223 0.01177048 0.04242881
0.00473531 0.01177105 0.04243636
0.00478535 0.01177118 0.04244861
0.00483540 0.01177130 0.04246086
0.00488848 0.01177188 0.04246840
0.00493854 0.01177200 0.04248065
0.00498858 0.01177212 0.04249290
0.00504167 0.01177270 0.04250047
0.00509172 0.01177282 0.04251270
0.00514177 0.01177294 0.04252495
0.00519487 0.01177352 0.04253250
0.00524492 0.01177365 0.04254475
0.00567987 0.01179448 0.04241166
0.00649036 0.01180502 0.04250634
0.00654978 0.01180652 0.04250450
0.00660612 0.01180756 0.04250738
0.00666247 0.01180860 0.04251023
0.00671263 0.01180872 0.04252250
0.00676899 0.01180976 0.04252538
0.00682226 0.01181034 0.04253295
0.00687552 0.01181092 0.04254054
0.00692569 0.01181104 0.04255281
0.00697585 0.01181116 0.04256508
0.00702912 0.01181174 0.04257266
0.00707930 0.01181187 0.04258494
0.00713257 0.01181245 0.04259251
0.00718585 0.01181303 0.04260010
0.00723914 0.01181361 0.04260767
0.00729243 0.01181419 0.04261523
0.00734571 0.01181477 0.04262282
0.01347817 0.01221770 0.03942430
-0.01299524 0.01254014 0.02759391
-0.01293959 0.01254078 0.02760142
-0.01288395 0.01254142 0.02760896
-0.01277794 0.01254168 0.02763490
-0.01272494 0.01254180 0.02764787
-0.01266929 0.01254244 0.02765539
-0.01261892 0.01254206 0.02767381
-0.01256592 0.01254219 0.02768679
-0.01251291 0.01254232 0.02769975
-0.01245990 0.01254245 0.02771273
-0.01240425 0.01254309 0.02772024
-0.01235124 0.01254322 0.02773322
-0.01229823 0.01254335 0.02774619
-0.01224256 0.01254399 0.02775371
-0.01218955 0.01254412 0.02776667
-0.01213654 0.01254425 0.02777965
-0.00812979 0.01189406 0.03678256
-0.00808171 0.01189372 0.03679991
-0.00803096 0.01189385 0.03681234
-0.00798289 0.01189350 0.03682970
-0.00793482 0.01189316 0.03684704
-0.00788676 0.01189282 0.03686440
-0.00783065 0.01189388 0.03686695
-0.00777184 0.01189540 0.03686456
-0.00771303 0.01189692 0.03686219
-0.00766765 0.01189611 0.03688447
-0.00761151 0.01189717 0.03688703
-0.00756344 0.01189683 0.03690438
-0.00751538 0.01189648 0.03692174
-0.00746462 0.01189661 0.03693415
-0.00740577 0.01189813 0.03693178
-0.00734963 0.01189919 0.03693435
-0.00729886 0.01189931 0.03694677
-0.00724269 0.01190037 0.03694932
-0.00718652 0.01190143 0.03695188
-0.00713304 0.01190202 0.03695938
-0.00708498 0.01190168 0.03697674
-0.00703962 0.01190087 0.03699902
-0.00181425 0.01165724 0.04139431
-0.00176153 0.01165782 0.04140180
-0.00170882 0.01165839 0.04140930
-0.00165045 0.01165987 0.04140738
-0.00160055 0.01165999 0.04141960
-0.00155065 0.01166011 0.04143180
-0.00150076 0.01166023 0.04144400
-0.00146502 0.01165810 0.04147977
-0.00141796 0.01165777 0.04149668
-0.00136524 0.01165834 0.04150417
-0.00131819 0.01165801 0.04152109
-0.00126547 0.01165858 0.04152860
-0.00121558 0.01165871 0.04154080
-0.00116000 0.01165973 0.04154360
-0.00111580 0.01165895 0.04156522
-0.00107729 0.01165727 0.04159625
0.00194801 0.01167711 0.04218523
0.00209779 0.01167747 0.04222189
0.00214477 0.01167714 0.04223879
0.00219470 0.01167726 0.04225101
0.00224462 0.01167739 0.04226322
0.00229455 0.01167751 0.04227544
0.00234152 0.01167718 0.04229234
0.00239144 0.01167730 0.04230456
0.00244136 0.01167742 0.04231678
0.00249128 0.01167754 0.04232900
0.00253824 0.01167721 0.04234590
0.00258521 0.01167688 0.04236279
0.00263514 0.01167700 0.04237501
0.00268506 0.01167713 0.04238722
0.00273793 0.01167770 0.04239477
0.00278785 0.01167782 0.04240698
0.00373022 0.01170151 0.04237761
0.00378622 0.01170254 0.04238045
0.00383622 0.01170266 0.04239269
0.00388321 0.01170233 0.04240961
0.00392720 0.01170155 0.04243122
0.00398320 0.01170258 0.04243408
0.00430553 0.01171408 0.04238266
0.00436159 0.01171511 0.04238552
0.00442070 0.01171660 0.04238369
0.00447375 0.01171718 0.04239123
0.00452682 0.01171775 0.04239878
0.00457687 0.01171787 0.04241103
0.00463599 0.01171936 0.04240920
0.00468300 0.01171903 0.04242612
0.00473306 0.01171915 0.04243837
0.00478613 0.01171973 0.04244593
0.00483315 0.01171940 0.04246287
0.00488622 0.01171997 0.04247043
0.00493931 0.01172055 0.04247798
0.00498632 0.01172022 0.04249492
0.00503941 0.01172079 0.04250246
0.00508946 0.01172092 0.04251471
0.00513647 0.01172058 0.04253167
0.00519565 0.01172207 0.04252984
0.00524570 0.01172219 0.04254209
0.00649423 0.01175392 0.04249895
0.00655365 0.01175542 0.04249713
0.00661000 0.01175645 0.04249999
0.00666635 0.01175749 0.04250285
0.00671651 0.01175761 0.04251513
0.00676977 0.01175819 0.04252270
0.00682304 0.01175877 0.04253027
0.00687630 0.01175935 0.04253785
0.00692647 0.01175947 0.04255013
0.00697663 0.01175959 0.04256240
0.00702991 0.01176017 0.04256998
0.00708007 0.01176030 0.04258226
0.00713336 0.01176087 0.04258983
0.00718664 0.01176145 0.04259741
0.00723992 0.01176203 0.04260498
0.00729321 0.01176261 0.04261257
0.00734338 0.01176274 0.04262483
0.01347558 0.01216428 0.03942648
0.01352029 0.01216344 0.03944893
-0.01304741 0.01248553 0.02757812
-0.01299441 0.01248566 0.02759108
-0.01293877 0.01248629 0.02759859
-0.01272411 0.01248731 0.02764504
-0.01267111 0.01248744 0.02765802
-0.01261809 0.01248757 0.02767098
-0.01256509 0.01248770 0.02768396
-0.01251208 0.01248783 0.02769692
-0.01245908 0.01248796 0.02770990
-0.01240607 0.01248809 0.02772287
-0.01235307 0.01248822 0.02773584
-0.01229741 0.01248886 0.02774335
-0.01224174 0.01248949 0.02775088
-0.01219139 0.01248912 0.02776930
-0.01213838 0.01248925 0.02778228
-0.00802749 0.01184214 0.03680469
-0.00797942 0.01184180 0.03682204
-0.00793135 0.01184146 0.03683940
-0.00788597 0.01184065 0.03686169
-0.00782717 0.01184217 0.03685930
-0.00776836 0.01184369 0.03685692
-0.00771223 0.01184474 0.03685948
-0.00766686 0.01184394 0.03688176
-0.00761072 0.01184499 0.03688432
-0.00756265 0.01184465 0.03690167
-0.00751459 0.01184431 0.03691903
-0.00746114 0.01184490 0.03692651
-0.00740229 0.01184642 0.03692414
-0.00734613 0.01184747 0.03692670
-0.00729537 0.01184759 0.03693911
-0.00723919 0.01184865 0.03694168
-0.00718573 0.01184924 0.03694917
-0.00708419 0.01184949 0.03697403
-0.00703613 0.01184915 0.03699136
-0.00181065 0.01160641 0.04138693
-0.00175793 0.01160698 0.04139443
-0.00170521 0.01160755 0.04140192
-0.00164967 0.01160857 0.04140471
-0.00159977 0.01160869 0.04141693
-0.00154704 0.01160927 0.04142441
-0.00149714 0.01160939 0.04143663
-0.00145859 0.01160771 0.04146768
-0.00140585 0.01160828 0.04147518
-0.00136163 0.01160750 0.04149681
-0.00131458 0.01160718 0.04151373
-0.00126753 0.01160685 0.04153064
-0.00121764 0.01160697 0.04154284
-0.00115923 0.01160844 0.04154094
-0.00112071 0.01160676 0.04157196
-0.00108220 0.01160509 0.04160300
0.00194585 0.01162533 0.04218726
0.00199578 0.01162545 0.04219946
0.00204571 0.01162558 0.04221168
0.00209562 0.01162570 0.04222390
0.00214260 0.01162537 0.04224081
0.00219253 0.01162549 0.04225303
0.00224245 0.01162561 0.04226525
0.00229237 0.01162574 0.04227746
0.00234229 0.01162586 0.04228967
0.00239221 0.01162598 0.04230189
0.00244214 0.01162610 0.04231411
0.00249206 0.01162622 0.04232633
0.00253902 0.01162589 0.04234323
0.00258598 0.01162557 0.04236013
0.00263591 0.01162569 0.04237235
0.00268583 0.01162581 0.04238456
0.00273871 0.01162638 0.04239210
0.00279160 0.01162695 0.04239963
0.00284152 0.01162708 0.04241185
0.00327139 0.01164011 0.04237089
0.00331838 0.01163978 0.04238780
0.00338624 0.01164261 0.04237190
0.00343920 0.01164318 0.04237942
0.00348917 0.01164331 0.04239166
0.00353914 0.01164343 0.04240388
0.00383099 0.01165036 0.04239939
0.00387498 0.01164958 0.04242101
0.00391597 0.01164835 0.04244731
0.00430933 0.01166310 0.04237530
0.00436540 0.01166413 0.04237814
0.00442147 0.01166516 0.04238100
0.00447756 0.01166619 0.04238386
0.00453062 0.01166676 0.04239142
0.00458067 0.01166688 0.04240367
0.00463677 0.01166791 0.04240651
0.00468379 0.01166758 0.04242346
0.00473686 0.01166816 0.04243101
0.00478388 0.01166783 0.04244795
0.00483393 0.01166795 0.04246019
0.00488397 0.01166807 0.04247244
0.00493705 0.01166864 0.04248001
0.00498711 0.01166877 0.04249226
0.00503715 0.01166889 0.04250450
0.00508720 0.01166901 0.04251674
0.00513420 0.01166868 0.04253368
0.00644486 0.01170225 0.04248400
0.00649809 0.01170282 0.04249159
0.00655752 0.01170431 0.04248974
0.00661387 0.01170534 0.04249260
0.00666713 0.01170592 0.04250017
0.00672039 0.01170650 0.04250775
0.00677366 0.01170708 0.04251532
0.00682691 0.01170766 0.04252289
0.00687709 0.01170778 0.04253517
0.00693035 0.01170836 0.04254274
0.00697742 0.01170802 0.04255973
0.00703069 0.01170860 0.04256730
0.00708085 0.01170872 0.04257958
0.00713414 0.01170930 0.04258716
0.00718742 0.01170988 0.04259473
0.00724071 0.01171046 0.04260230
0.00729399 0.01171103 0.04260989
0.01347300 0.01211086 0.03942864
0.01351769 0.01211003 0.03945109
-0.01311012 0.01242889 0.02758412
-0.01304659 0.01243104 0.02757528
-0.01299358 0.01243117 0.02758825
-0.01293794 0.01243180 0.02759576
-0.01272328 0.01243282 0.02764221
-0.01267028 0.01243295 0.02765518
-0.01261727 0.01243308 0.02766815
-0.01256426 0.01243321 0.02768113
-0.01251125 0.01243334 0.02769409
-0.01245825 0.01243347 0.02770706
-0.01240525 0.01243360 0.02772003
-0.01235224 0.01243373 0.02773300
-0.01229658 0.01243437 0.02774052
-0.01224358 0.01243450 0.02775350
-0.01219057 0.01243463 0.02776647
-0.01213755 0.01243475 0.02777945
-0.00807210 0.01179077 0.03677969
-0.00802403 0.01179043 0.03679703
-0.00797595 0.01179009 0.03681441
-0.00792788 0.01178975 0.03683175
-0.00787982 0.01178941 0.03684911
-0.00782370 0.01179046 0.03685166
-0.00776488 0.01179198 0.03684928
-0.00770875 0.01179303 0.03685182
-0.00766068 0.01179269 0.03686918
-0.00760724 0.01179327 0.03687668
-0.00755648 0.01179340 0.03688909
-0.00750841 0.01179306 0.03690645
-0.00745495 0.01179365 0.03691393
-0.00739880 0.01179470 0.03691649
-0.00734264 0.01179575 0.03691904
-0.00729187 0.01179587 0.03693147
-0.00723840 0.01179646 0.03693897
-0.00718223 0.01179751 0.03694153
-0.00713146 0.01179763 0.03695396
-0.00708340 0.01179730 0.03697132
-0.00703534 0.01179696 0.03698865
-0.00529724 0.01172800 0.03831011
-0.00525223 0.01172721 0.03833221
-0.00242144 0.01156732 0.04106697
-0.00237712 0.01156654 0.04108866
-0.00224698 0.01156377 0.04115836
-0.00219987 0.01156344 0.04117531
-0.00214995 0.01156356 0.04118752
-0.00210003 0.01156368 0.04119974
-0.00205293 0.01156336 0.04121667
-0.00201990 0.01156079 0.04125720
-0.00180987 0.01155512 0.04138426
-0.00175715 0.01155569 0.04139176
-0.00170444 0.01155626 0.04139926
-0.00164606 0.01155773 0.04139733
-0.00159617 0.01155785 0.04140954
-0.00154343 0.01155842 0.04141705
-0.00149637 0.01155809 0.04143396
-0.00145497 0.01155687 0.04146031
-0.00140224 0.01155744 0.04146780
-0.00135802 0.01155666 0.04148944
-0.00131097 0.01155634 0.04150635
-0.00126391 0.01155601 0.04152326
-0.00121687 0.01155569 0.04154018
-0.00116414 0.01155626 0.04154769
-0.00112562 0.01155458 0.04157871
0.00194663 0.01157401 0.04218459
0.00199655 0.01157413 0.04219680
0.00204354 0.01157380 0.04221371
0.00209346 0.01157393 0.04222593
0.00214338 0.01157405 0.04223815
0.00219330 0.01157417 0.04225037
0.00224323 0.01157429 0.04226258
0.00229315 0.01157441 0.04227480
0.00234307 0.01157454 0.04228701
0.00239004 0.01157421 0.04230392
0.00244292 0.01157478 0.04231144
0.00248989 0.01157445 0.04232836
0.00253980 0.01157457 0.04234056
0.00258677 0.01157425 0.04235746
0.00263669 0.01157437 0.04236968
0.00268660 0.01157449 0.04238190
0.00273949 0.01157506 0.04238944
0.00279237 0.01157563 0.04239696
0.00284526 0.01157621 0.04240449
0.00320731 0.01158637 0.04237942
0.00327217 0.01158874 0.04236822
0.00332512 0.01158932 0.04237574
0.00338703 0.01159124 0.04236922
0.00343700 0.01159136 0.04238145
0.00348996 0.01159193 0.04238898
0.00353993 0.01159206 0.04240121
0.00359588 0.01159308 0.04240407
0.00376379 0.01159614 0.04241264
0.00382578 0.01159807 0.04240610
0.00387276 0.01159774 0.04242302
0.00391375 0.01159651 0.04244933
0.00431010 0.01161167 0.04237263
0.00436316 0.01161224 0.04238018
0.00442225 0.01161372 0.04237834
0.00447834 0.01161474 0.04238118
0.00453141 0.01161531 0.04238874
0.00458145 0.01161544 0.04240099
0.00463755 0.01161646 0.04240385
0.00468457 0.01161613 0.04242077
0.00473765 0.01161671 0.04242834
0.00478769 0.01161683 0.04244059
0.00483470 0.01161650 0.04245752
0.00488475 0.01161662 0.04246977
0.00493480 0.01161674 0.04248202
0.00498485 0.01161687 0.04249427
0.00618256 0.01164827 0.04243878
0.00623271 0.01164839 0.04245105
0.00628593 0.01164896 0.04245861
0.00633917 0.01164954 0.04246618
0.00639549 0.01165057 0.04246904
0.00644872 0.01165114 0.04247662
0.00650197 0.01165172 0.04248419
0.00656141 0.01165320 0.04248236
0.00661775 0.01165423 0.04248522
0.00667101 0.01165481 0.04249279
0.00672117 0.01165493 0.04250507
0.00677443 0.01165551 0.04251264
0.00682770 0.01165609 0.04252021
0.00688097 0.01165666 0.04252779
0.00693113 0.01165678 0.04254007
0.00697820 0.01165645 0.04255705
0.00703147 0.01165703 0.04256462
0.00708164 0.01165715 0.04257689
0.00713491 0.01165773 0.04258448
0.00718820 0.01165830 0.04259205
0.00724459 0.01165933 0.04259492
0.00729477 0.01165946 0.04260720
-0.01304576 0.01237655 0.02757245
-0.01299275 0.01237668 0.02758542
-0.01272245 0.01237833 0.02763937
-0.01266945 0.01237846 0.02765235
-0.01261645 0.01237859 0.02766532
-0.01256344 0.01237872 0.02767830
-0.01251043 0.01237885 0.02769126
-0.01245743 0.01237898 0.02770422
-0.01240177 0.01237962 0.02771175
-0.01234876 0.01237975 0.02772473
-0.01229575 0.01237987 0.02773769
-0.01224008 0.01238051 0.02774522
-0.01218707 0.01238064 0.02775818
-0.01213673 0.01238026 0.02777661
-0.00806864 0.01173905 0.03677204
-0.00802324 0.01173826 0.03679433
-0.00797248 0.01173838 0.03680675
-0.00792441 0.01173804 0.03682411
-0.00787634 0.01173770 0.03684145
-0.00782022 0.01173875 0.03684402
-0.00776141 0.01174026 0.03684163
-0.00770527 0.01174131 0.03684418
-0.00765720 0.01174097 0.03686154
-0.00760107 0.01174202 0.03686410
-0.00755299 0.01174168 0.03688145
-0.00750223 0.01174180 0.03689387
-0.00744878 0.01174239 0.03690137
-0.00739262 0.01174344 0.03690392
-0.00733915 0.01174402 0.03691140
-0.00728838 0.01174415 0.03692383
-0.00723491 0.01174473 0.03693132
-0.00718144 0.01174532 0.03693882
-0.00712796 0.01174590 0.03694630
-0.00707719 0.01174603 0.03695872
-0.00698378 0.01174489 0.03699836
-0.00224621 0.01151244 0.04115570
-0.00219909 0.01151212 0.04117264
-0.00215199 0.01151179 0.04118958
-0.00210488 0.01151147 0.04120651
-0.00205496 0.01151159 0.04121873
-0.00202195 0.01150903 0.04125926
-0.00180910 0.01150383 0.04138160
-0.00175638 0.01150440 0.04138909
-0.00170366 0.01150497 0.04139659
-0.00164811 0.01150598 0.04139939
-0.00160105 0.01150566 0.04141630
-0.00154832 0.01150623 0.04142380
-0.00150125 0.01150590 0.04144073
-0.00146269 0.01150424 0.04147176
-0.00141280 0.01150436 0.04148397
-0.00136291 0.01150448 0.04149619
-0.00131585 0.01150416 0.04151310
-0.00126881 0.01150383 0.04153001
-0.00123028 0.01150217 0.04156105
-0.00117756 0.01150274 0.04156855
0.00214121 0.01152228 0.04224017
0.00224400 0.01152297 0.04225992
0.00229098 0.01152265 0.04227681
0.00234385 0.01152322 0.04228434
0.00239082 0.01152289 0.04230125
0.00244369 0.01152346 0.04230878
0.00249066 0.01152313 0.04232569
0.00253762 0.01152281 0.04234257
0.00258754 0.01152293 0.04235479
0.00263747 0.01152305 0.04236701
0.00268739 0.01152318 0.04237923
0.00274026 0.01152374 0.04238677
0.00279316 0.01152431 0.04239430
0.00284604 0.01152488 0.04240182
0.00315814 0.01153490 0.04236454
0.00321703 0.01153636 0.04236269
0.00328189 0.01153873 0.04235148
0.00333783 0.01153975 0.04235433
0.00338780 0.01153987 0.04236655
0.00344076 0.01154044 0.04237409
0.00349073 0.01154056 0.04238631
0.00354070 0.01154068 0.04239854
0.00359666 0.01154170 0.04240140
0.00370859 0.01154374 0.04240711
0.00375857 0.01154386 0.04241934
0.00382055 0.01154578 0.04241280
0.00387055 0.01154590 0.04242504
0.00391153 0.01154468 0.04245134
0.00431088 0.01156023 0.04236995
0.00436393 0.01156080 0.04237750
0.00442304 0.01156227 0.04237567
0.00447912 0.01156330 0.04237852
0.00453219 0.01156387 0.04238607
0.00458223 0.01156399 0.04239832
0.00463833 0.01156501 0.04240118
0.00468534 0.01156469 0.04241811
0.00473540 0.01156481 0.04243036
0.00478543 0.01156493 0.04244260
0.00483245 0.01156460 0.04245955
0.00488250 0.01156472 0.04247180
0.00618643 0.01159717 0.04243140
0.00623349 0.01159684 0.04244837
0.00628671 0.01159741 0.04245594
0.00633994 0.01159799 0.04246350
0.00639627 0.01159901 0.04246637
0.00644951 0.01159959 0.04247394
0.00650275 0.01160016 0.04248151
0.00656219 0.01160164 0.04247968
0.00661854 0.01160267 0.04248254
0.00667489 0.01160370 0.04248542
0.00672506 0.01160382 0.04249768
0.00677831 0.01160439 0.04250526
0.00683159 0.01160497 0.04251283
0.00688175 0.01160509 0.04252511
0.00693192 0.01160521 0.04253739
0.00697898 0.01160488 0.04255436
0.00703225 0.01160546 0.04256193
0.00708242 0.01160558 0.04257421
0.00713570 0.01160615 0.04258180
0.00718898 0.01160673 0.04258937
0.00724538 0.01160776 0.04259224
0.00729555 0.01160788 0.04260452
0.01344685 0.01200820 0.03937607
-0.01304493 0.01232207 0.02756962
-0.01299193 0.01232220 0.02758259
-0.01272427 0.01232335 0.02764198
-0.01266862 0.01232397 0.02764952
-0.01261827 0.01232360 0.02766792
-0.01256261 0.01232423 0.02767546
-0.01250961 0.01232436 0.02768843
-0.01245660 0.01232449 0.02770139
-0.01240095 0.01232512 0.02770892
-0.01234794 0.01232525 0.02772190
-0.01229227 0.01232588 0.02772941
-0.01223926 0.01232601 0.02774239
-0.01218624 0.01232614 0.02775535
-0.01213591 0.01232577 0.02777378
-0.00806517 0.01168734 0.03676440
-0.00801977 0.01168654 0.03678669
-0.00796901 0.01168667 0.03679910
-0.00792094 0.01168633 0.03681646
-0.00787286 0.01168599 0.03683382
-0.00781137 0.01168796 0.03682651
-0.00775256 0.01168946 0.03682412
-0.00769911 0.01169004 0.03683160
-0.00764835 0.01169017 0.03684403
-0.00759488 0.01169075 0.03685151
-0.00754412 0.01169088 0.03686394
-0.00749605 0.01169054 0.03688130
-0.00743989 0.01169159 0.03688385
-0.00738912 0.01169171 0.03689626
-0.00733566 0.01169229 0.03690377
-0.00728218 0.01169288 0.03691125
-0.00723142 0.01169300 0.03692368
-0.00717524 0.01169405 0.03692624
-0.00712176 0.01169463 0.03693372
-0.00707369 0.01169430 0.03695108
-0.00702562 0.01169396 0.03696844
-0.00697757 0.01169362 0.03698580
-0.00692408 0.01169421 0.03699329
-0.00224824 0.01146068 0.04115775
-0.00171136 0.01145234 0.04140806
-0.00165582 0.01145335 0.04141085
-0.00160875 0.01145303 0.04142776
-0.00156169 0.01145271 0.04144469
-0.00150614 0.01145372 0.04144748
-0.00146475 0.01145251 0.04147381
-0.00141486 0.01145263 0.04148601
-0.00136497 0.01145275 0.04149823
-0.00132076 0.01145198 0.04151985
-0.00127087 0.01145210 0.04153205
-0.00122951 0.01145089 0.04155838
-0.00117678 0.01145146 0.04156588
0.00249144 0.01147182 0.04232302
0.00253841 0.01147149 0.04233991
0.00258832 0.01147161 0.04235213
0.00263824 0.01147174 0.04236434
0.00268816 0.01147186 0.04237656
0.00274104 0.01147242 0.04238410
0.00279393 0.01147299 0.04239163
0.00311789 0.01148476 0.04233557
0.00317679 0.01148622 0.04233372
0.00324165 0.01148858 0.04232250
0.00329163 0.01148870 0.04233472
0.00334756 0.01148972 0.04233758
0.00339753 0.01148984 0.04234982
0.00344751 0.01148996 0.04236205
0.00349450 0.01148964 0.04237896
0.00354747 0.01149020 0.04238650
0.00360043 0.01149077 0.04239404
0.00371536 0.01149325 0.04239507
0.00376235 0.01149293 0.04241198
0.00382433 0.01149484 0.04240546
0.00387432 0.01149496 0.04241769
0.00391530 0.01149374 0.04244399
0.00425861 0.01150823 0.04235972
0.00431167 0.01150880 0.04236728
0.00436471 0.01150937 0.04237483
0.00442684 0.01151128 0.04236828
0.00448292 0.01151230 0.04237115
0.00453599 0.01151287 0.04237869
0.00458603 0.01151299 0.04239094
0.00463911 0.01151356 0.04239850
0.00468612 0.01151324 0.04241544
0.00473618 0.01151336 0.04242767
0.00478925 0.01151393 0.04243524
0.00483627 0.01151360 0.04245217
0.00602754 0.01154390 0.04240602
0.00618412 0.01154517 0.04243343
0.00623427 0.01154529 0.04244569
0.00628442 0.01154541 0.04245797
0.00634073 0.01154644 0.04246083
0.00639397 0.01154701 0.04246840
0.00644720 0.01154758 0.04247595
0.00650353 0.01154860 0.04247884
0.00655987 0.01154963 0.04248171
0.00661932 0.01155110 0.04247986
0.00667567 0.01155213 0.04248273
0.00672584 0.01155225 0.04249501
0.00677910 0.01155282 0.04250258
0.00683237 0.01155339 0.04251015
0.00688253 0.01155352 0.04252243
0.00692959 0.01155319 0.04253940
0.00697976 0.01155331 0.04255168
0.00702992 0.01155343 0.04256396
0.00708320 0.01155401 0.04257154
0.00713648 0.01155458 0.04257911
0.00718977 0.01155515 0.04258670
0.00724305 0.01155573 0.04259425
0.00729322 0.01155585 0.04260653
-0.01738834 0.01282217 0.01950973
-0.01727582 0.01282298 0.01953070
-0.01299111 0.01226771 0.02757975
-0.01266780 0.01226948 0.02764669
-0.01261479 0.01226961 0.02765965
-0.01256178 0.01226974 0.02767262
-0.01250878 0.01226987 0.02768560
-0.01245312 0.01227050 0.02769312
-0.01240012 0.01227063 0.02770609
-0.01234711 0.01227076 0.02771905
