ply
format ascii 1.0
element vertex 1412
property float x
property float y
property float z
end_header
-0.00103047 0.00915177 0.00421758
-0.00106438 0.00915198 0.00426158
-0.00110162 0.00915183 0.00430050
-0.00114552 0.00915097 0.00432923
-0.00120270 0.00914869 0.00433756
-0.00125986 0.00914641 0.00434588
-0.00134426 0.00914505 0.00440837
-0.00139474 0.00914349 0.00442688
-0.00144853 0.00914156 0.00444028
-0.00158663 0.00913829 0.00451612
-0.00163043 0.00913743 0.00454479
-0.00167094 0.00913693 0.00457858
-0.00171805 0.00913572 0.00460213
-0.00176185 0.00913486 0.00463079
-0.00180563 0.00913401 0.00465944
-0.00324651 0.00909428 0.00531293
-0.00329006 0.00909343 0.00534146
-0.00333035 0.00909294 0.00537507
-0.00336741 0.00909279 0.00541382
-0.00340447 0.00909265 0.00545254
-0.00344153 0.00909250 0.00549127
-0.00348183 0.00909201 0.00552489
-0.00352212 0.00909151 0.00555851
-0.00355918 0.00909137 0.00559723
-0.00359301 0.00909157 0.00564109
-0.00363006 0.00909143 0.00567982
-0.00367035 0.00909093 0.00571343
-0.00370094 0.00909150 0.00576240
-0.00373156 0.00909206 0.00581138
-0.00377183 0.00909156 0.00584500
-0.00381212 0.00909106 0.00587860
-0.00384596 0.00909127 0.00592247
-0.00388302 0.00909113 0.00596119
-0.00467734 0.00906666 0.00625725
-0.00471433 0.00906651 0.00629590
-0.00475450 0.00906602 0.00632943
-0.00479466 0.00906552 0.00636296
-0.00483164 0.00906538 0.00640161
-0.00486862 0.00906524 0.00644025
-0.00489925 0.00906579 0.00648917
-0.00493305 0.00906600 0.00653297
-0.00497639 0.00906515 0.00656135
-0.00500702 0.00906571 0.00661027
-0.00537065 0.00907685 0.00730379
-0.00540768 0.00907670 0.00734249
-0.00543838 0.00907726 0.00739153
-0.00546908 0.00907782 0.00744058
-0.00550293 0.00907803 0.00748447
-0.00553681 0.00907824 0.00752835
-0.00557385 0.00907809 0.00756706
-0.00561088 0.00907795 0.00760578
-0.00564476 0.00907816 0.00764966
-0.00568496 0.00907766 0.00768319
-0.00572199 0.00907752 0.00772190
-0.00575903 0.00907737 0.00776061
-0.00579607 0.00907723 0.00779933
-0.00583310 0.00907708 0.00783803
-0.00587329 0.00907659 0.00787155
-0.00704543 0.00904527 0.00842804
-0.00707616 0.00904582 0.00847703
-0.00711621 0.00904533 0.00851046
-0.00715315 0.00904519 0.00854906
-0.00719320 0.00904469 0.00858247
-0.00723324 0.00904420 0.00861588
-0.00727328 0.00904371 0.00864930
-0.00731022 0.00904356 0.00868790
-0.00734716 0.00904342 0.00872652
-0.00738100 0.00904363 0.00877032
-0.00741794 0.00904348 0.00880893
-0.00745488 0.00904334 0.00884753
-0.00749182 0.00904319 0.00888614
-0.00752876 0.00904305 0.00892475
-0.00756261 0.00904326 0.00896856
-0.00759955 0.00904311 0.00900717
-0.00763649 0.00904297 0.00904578
-0.00767343 0.00904283 0.00908439
-0.00771037 0.00904268 0.00912301
-0.00774114 0.00904324 0.00917205
-0.00782349 0.00909488 0.01055625
-0.00786681 0.00909403 0.01058447
-0.00791322 0.00909282 0.01060741
-0.00794726 0.00909303 0.01065150
-0.00799056 0.00909218 0.01067972
-0.00944283 0.00905286 0.01135644
-0.00948286 0.00905237 0.01138982
-0.00951986 0.00905223 0.01142849
-0.00955990 0.00905173 0.01146185
-0.00959689 0.00905159 0.01150052
-0.00963692 0.00905109 0.01153390
-0.00967392 0.00905095 0.01157257
-0.00971091 0.00905081 0.01161124
-0.00974791 0.00905066 0.01164991
-0.01029238 0.00911265 0.01382057
-0.01032659 0.00911286 0.01386487
-0.01036078 0.00911307 0.01390921
-0.01040104 0.00911257 0.01394270
-0.01044129 0.00911207 0.01397620
-0.01047851 0.00911193 0.01401509
-0.01051272 0.00911214 0.01405942
-0.01054995 0.00911199 0.01409833
-0.01058717 0.00911185 0.01413724
-0.01062138 0.00911206 0.01418157
-0.01065560 0.00911227 0.01422590
-0.01068981 0.00911248 0.01427023
-0.01072403 0.00911269 0.01431458
-0.01075825 0.00911290 0.01435891
-0.01079548 0.00911275 0.01439783
-0.01083272 0.00911261 0.01443674
-0.01097316 0.00912581 0.01492698
-0.01101345 0.00912531 0.01496048
-0.01105373 0.00912481 0.01499401
-0.01108801 0.00912502 0.01503842
-0.01112829 0.00912452 0.01507193
-0.01115956 0.00912508 0.01512180
-0.01119386 0.00912530 0.01516624
-0.01123114 0.00912515 0.01520520
-0.01128040 0.00912358 0.01522233
-0.01133858 0.00915961 0.01618882
-0.01137299 0.00915982 0.01623343
-0.01159586 0.00916346 0.01657894
-0.01188638 0.00917205 0.01712540
-0.00068764 0.00910371 0.00397360
-0.00073157 0.00910285 0.00400236
-0.00077885 0.00910164 0.00402603
-0.00082278 0.00910079 0.00405475
-0.00086334 0.00910029 0.00408860
-0.00090393 0.00909979 0.00412242
-0.00098842 0.00909844 0.00418499
-0.00102897 0.00909794 0.00421882
-0.00106288 0.00909815 0.00426282
-0.00110012 0.00909800 0.00430174
-0.00114734 0.00909679 0.00432537
-0.00139324 0.00908969 0.00442812
-0.00145034 0.00908743 0.00443640
-0.00162894 0.00908366 0.00454603
-0.00167275 0.00908281 0.00457469
-0.00171655 0.00908196 0.00460336
-0.00176035 0.00908111 0.00463203
-0.00180414 0.00908026 0.00466068
-0.00325150 0.00904000 0.00530395
-0.00329505 0.00903916 0.00533247
-0.00333535 0.00903866 0.00536609
-0.00337563 0.00903817 0.00539972
-0.00341593 0.00903767 0.00543332
-0.00344975 0.00903788 0.00547716
-0.00348680 0.00903774 0.00551590
-0.00352710 0.00903724 0.00554951
-0.00356738 0.00903675 0.00558312
-0.00359797 0.00903730 0.00563209
-0.00363181 0.00903751 0.00567593
-0.00367208 0.00903702 0.00570954
-0.00370269 0.00903757 0.00575851
-0.00373328 0.00903813 0.00580749
-0.00377357 0.00903764 0.00584109
-0.00381063 0.00903749 0.00587983
-0.00384769 0.00903735 0.00591856
-0.00467904 0.00901284 0.00625335
-0.00471921 0.00901235 0.00628687
-0.00475938 0.00901186 0.00632040
-0.00479955 0.00901136 0.00635391
-0.00483972 0.00901087 0.00638743
-0.00487351 0.00901108 0.00643121
-0.00490412 0.00901163 0.00648014
-0.00493792 0.00901184 0.00652392
-0.00498126 0.00901100 0.00655231
-0.00501189 0.00901155 0.00660123
-0.00536916 0.00902332 0.00730501
-0.00540619 0.00902317 0.00734371
-0.00543372 0.00902408 0.00739792
-0.00546759 0.00902428 0.00744180
-0.00550144 0.00902449 0.00748570
-0.00553532 0.00902470 0.00752957
-0.00557236 0.00902455 0.00756828
-0.00560939 0.00902441 0.00760700
-0.00564643 0.00902426 0.00764571
-0.00568347 0.00902412 0.00768441
-0.00572050 0.00902398 0.00772312
-0.00579458 0.00902369 0.00780055
-0.00703772 0.00899256 0.00843965
-0.00707156 0.00899277 0.00848345
-0.00710851 0.00899262 0.00852206
-0.00714546 0.00899248 0.00856069
-0.00718550 0.00899199 0.00859410
-0.00722554 0.00899150 0.00862752
-0.00726248 0.00899135 0.00866613
-0.00730254 0.00899086 0.00869954
-0.00733948 0.00899072 0.00873815
-0.00737642 0.00899057 0.00877675
-0.00741336 0.00899043 0.00881536
-0.00745030 0.00899029 0.00885397
-0.00748724 0.00899014 0.00889258
-0.00752418 0.00899000 0.00893119
-0.00755803 0.00899020 0.00897501
-0.00759497 0.00899006 0.00901362
-0.00763191 0.00898992 0.00905223
-0.00766885 0.00898977 0.00909084
-0.00770579 0.00898963 0.00912945
-0.00786842 0.00904001 0.01058042
-0.00791173 0.00903916 0.01060864
-0.00794885 0.00903902 0.01064745
-0.00799216 0.00903817 0.01067565
-0.00944134 0.00899938 0.01135767
-0.00948137 0.00899888 0.01139104
-0.01029391 0.00905849 0.01381640
-0.01032811 0.00905869 0.01386070
-0.01036534 0.00905855 0.01389961
-0.01040558 0.00905805 0.01393311
-0.01044280 0.00905791 0.01397201
-0.01048002 0.00905776 0.01401092
-0.01051424 0.00905797 0.01405524
-0.01055146 0.00905783 0.01409414
-0.01058869 0.00905768 0.01413305
-0.01062591 0.00905754 0.01417196
-0.01066013 0.00905774 0.01421629
-0.01069433 0.00905795 0.01426062
-0.01072554 0.00905851 0.01431037
-0.01075976 0.00905872 0.01435472
-0.01079699 0.00905858 0.01439363
-0.01083723 0.00905808 0.01442711
-0.01097468 0.00907156 0.01492277
-0.01101496 0.00907106 0.01495628
-0.01105824 0.00907021 0.01498432
-0.01113280 0.00906992 0.01506224
-0.01120135 0.00907034 0.01515108
-0.01123863 0.00907019 0.01519005
-0.01138350 0.00910432 0.01621260
-0.00064889 0.00905000 0.00393590
-0.00068948 0.00904950 0.00396974
-0.00073342 0.00904865 0.00399850
-0.00078069 0.00904745 0.00402217
-0.00082461 0.00904660 0.00405091
-0.00086519 0.00904610 0.00408474
-0.00090577 0.00904560 0.00411856
-0.00099024 0.00904426 0.00418113
-0.00103081 0.00904376 0.00421494
-0.00106805 0.00904361 0.00425386
-0.00110529 0.00904347 0.00429279
-0.00115249 0.00904226 0.00431640
-0.00134458 0.00903710 0.00440575
-0.00139506 0.00903555 0.00442424
-0.00145217 0.00903329 0.00443253
-0.00158694 0.00903039 0.00451349
-0.00163075 0.00902955 0.00454216
-0.00167456 0.00902870 0.00457083
-0.00172167 0.00902750 0.00459439
-0.00176215 0.00902700 0.00462815
-0.00180594 0.00902615 0.00465682
-0.00333709 0.00898475 0.00536221
-0.00338062 0.00898390 0.00539072
-0.00341444 0.00898411 0.00543456
-0.00344826 0.00898431 0.00547840
-0.00348856 0.00898382 0.00551201
-0.00352883 0.00898333 0.00554563
-0.00356912 0.00898283 0.00557923
-0.00359971 0.00898339 0.00562818
-0.00363677 0.00898324 0.00566691
-0.00367705 0.00898275 0.00570053
-0.00370120 0.00898400 0.00575973
-0.00372534 0.00898525 0.00581896
-0.00376564 0.00898476 0.00585257
-0.00380591 0.00898427 0.00588618
-0.00463738 0.00895987 0.00622104
-0.00467755 0.00895938 0.00625457
-0.00471772 0.00895889 0.00628810
-0.00475789 0.00895840 0.00632162
-0.00480124 0.00895756 0.00635001
-0.00483823 0.00895742 0.00638865
-0.00487202 0.00895762 0.00643243
-0.00489945 0.00895852 0.00648649
-0.00493643 0.00895838 0.00652514
-0.00497659 0.00895789 0.00655866
-0.00501040 0.00895809 0.00660245
-0.00504421 0.00895829 0.00664625
-0.00515833 0.00895751 0.00675707
-0.00519531 0.00895737 0.00679572
-0.00536767 0.00896979 0.00730623
-0.00540470 0.00896964 0.00734495
-0.00542906 0.00897089 0.00740433
-0.00546291 0.00897110 0.00744821
-0.00549363 0.00897165 0.00749727
-0.00552750 0.00897185 0.00754115
-0.00556454 0.00897171 0.00757986
-0.00560474 0.00897122 0.00761341
-0.00563862 0.00897142 0.00765729
-0.00567882 0.00897093 0.00769082
-0.00571585 0.00897078 0.00772953
-0.00578994 0.00897050 0.00780696
-0.00703624 0.00893916 0.00844087
-0.00707008 0.00893936 0.00848468
-0.00710702 0.00893922 0.00852329
-0.00714086 0.00893942 0.00856709
-0.00718091 0.00893893 0.00860052
-0.00722095 0.00893844 0.00863393
-0.00726100 0.00893795 0.00866735
-0.00729794 0.00893781 0.00870596
-0.00733799 0.00893732 0.00873937
-0.00737183 0.00893752 0.00878318
-0.00740877 0.00893738 0.00882179
-0.00744571 0.00893723 0.00886039
-0.00748266 0.00893709 0.00889902
-0.00752269 0.00893660 0.00893241
-0.00755654 0.00893680 0.00897624
-0.00759348 0.00893666 0.00901484
-0.00763042 0.00893651 0.00905345
-0.00766736 0.00893637 0.00909206
-0.00799067 0.00898451 0.01067689
-0.00947988 0.00894540 0.01139227
-0.00951992 0.00894491 0.01142564
-0.00955994 0.00894442 0.01145901
-0.00963696 0.00894378 0.01153105
-0.01029241 0.00900468 0.01381762
-0.01032963 0.00900453 0.01385653
-0.01036686 0.00900439 0.01389544
-0.01040408 0.00900424 0.01393434
-0.01044433 0.00900375 0.01396784
-0.01047853 0.00900395 0.01401216
-0.01051576 0.00900381 0.01405106
-0.01055298 0.00900366 0.01408997
-0.01059020 0.00900352 0.01412886
-0.01062743 0.00900337 0.01416777
-0.01066164 0.00900358 0.01421210
-0.01069586 0.00900379 0.01425643
-0.01073007 0.00900399 0.01430076
-0.01076128 0.00900455 0.01435052
-0.01079851 0.00900440 0.01438943
-0.01083875 0.00900391 0.01442292
-0.01087297 0.00900412 0.01446725
-0.01105975 0.00901597 0.01498011
-0.01183993 0.00906461 0.01709981
-0.01188038 0.00906411 0.01713343
-0.01192383 0.00906325 0.01716146
-0.01195829 0.00906346 0.01720618
-0.01199575 0.00906331 0.01724532
-0.00065073 0.00899580 0.00393204
-0.00069133 0.00899530 0.00396590
-0.00073527 0.00899446 0.00399464
-0.00077919 0.00899361 0.00402339
-0.00082311 0.00899276 0.00405215
-0.00086369 0.00899226 0.00408597
-0.00090093 0.00899212 0.00412489
-0.00098541 0.00899078 0.00418745
-0.00102597 0.00899028 0.00422128
-0.00114434 0.00898915 0.00432783
-0.00139689 0.00898141 0.00442038
-0.00162926 0.00897578 0.00454339
-0.00167306 0.00897494 0.00457206
-0.00172017 0.00897374 0.00459562
-0.00176065 0.00897325 0.00462939
-0.00180444 0.00897240 0.00465804
-0.00337590 0.00893069 0.00539705
-0.00341295 0.00893055 0.00543578
-0.00344677 0.00893075 0.00547962
-0.00348706 0.00893026 0.00551324
-0.00353058 0.00892942 0.00554174
-0.00357087 0.00892893 0.00557534
-0.00360468 0.00892913 0.00561918
-0.00372385 0.00893168 0.00582018
-0.00463270 0.00890676 0.00622739
-0.00467287 0.00890627 0.00626092
-0.00471304 0.00890578 0.00629444
-0.00475321 0.00890529 0.00632797
-0.00479338 0.00890480 0.00636150
-0.00483356 0.00890431 0.00639501
-0.00486734 0.00890451 0.00643881
-0.00489796 0.00890506 0.00648771
-0.00493176 0.00890526 0.00653151
-0.00497510 0.00890443 0.00655989
-0.00500891 0.00890463 0.00660367
-0.00504272 0.00890483 0.00664747
-0.00515684 0.00890405 0.00675829
-0.00536935 0.00891591 0.00730230
-0.00540638 0.00891577 0.00734100
-0.00546461 0.00891721 0.00744426
-0.00549214 0.00891811 0.00749849
-0.00552601 0.00891831 0.00754237
-0.00556621 0.00891782 0.00757591
-0.00560325 0.00891768 0.00761463
-0.00563713 0.00891788 0.00765851
-0.00567417 0.00891773 0.00769722
-0.00571436 0.00891724 0.00773077
-0.00578529 0.00891730 0.00781336
-0.00582548 0.00891681 0.00784689
-0.00586567 0.00891632 0.00788042
-0.00706549 0.00888630 0.00849110
-0.00710243 0.00888616 0.00852971
-0.00713938 0.00888602 0.00856832
-0.00717942 0.00888553 0.00860174
-0.00721947 0.00888504 0.00863516
-0.00725641 0.00888489 0.00867377
-0.00729646 0.00888441 0.00870718
-0.00733340 0.00888426 0.00874579
-0.00737034 0.00888412 0.00878441
-0.00740728 0.00888397 0.00882302
-0.00744423 0.00888383 0.00886163
-0.00748117 0.00888369 0.00890024
-0.00751811 0.00888354 0.00893885
-0.00755196 0.00888374 0.00898266
-0.00758890 0.00888360 0.00902128
-0.00762585 0.00888346 0.00905989
-0.00798918 0.00893085 0.01067811
-0.00944139 0.00889206 0.01135482
-0.00948143 0.00889157 0.01138820
-0.00952146 0.00889108 0.01142158
-0.00956149 0.00889059 0.01145494
-0.00960152 0.00889010 0.01148830
-0.00963851 0.00888995 0.01152697
-0.00967853 0.00888947 0.01156034
-0.00975252 0.00888918 0.01163767
-0.01036536 0.00895058 0.01389667
-0.01040258 0.00895043 0.01393558
-0.01044283 0.00894994 0.01396906
-0.01048005 0.00894979 0.01400797
-0.01051728 0.00894965 0.01404688
-0.01055450 0.00894950 0.01408578
-0.01059172 0.00894936 0.01412469
-0.01062593 0.00894956 0.01416901
-0.01066315 0.00894942 0.01420791
-0.01069436 0.00894997 0.01425765
-0.01072857 0.00895018 0.01430200
-0.01075978 0.00895073 0.01435176
-0.01079701 0.00895059 0.01439066
-0.01083725 0.00895009 0.01442415
-0.01087447 0.00894995 0.01446307
-0.01107027 0.00896069 0.01495953
-0.01178897 0.00901202 0.01708411
-0.01183243 0.00901116 0.01711217
-0.01187589 0.00901031 0.01714021
-0.01191933 0.00900946 0.01716827
-0.01195678 0.00900931 0.01720741
-0.01199724 0.00900881 0.01724100
-0.01203469 0.00900866 0.01728016
-0.01206617 0.00900923 0.01733042
-0.01210066 0.00900943 0.01737513
-0.00064924 0.00894195 0.00393328
-0.00069318 0.00894111 0.00396204
-0.00073710 0.00894026 0.00399080
-0.00078104 0.00893942 0.00401953
-0.00082495 0.00893858 0.00404827
-0.00086553 0.00893808 0.00408211
-0.00090277 0.00893794 0.00412104
-0.00098725 0.00893660 0.00418359
-0.00102782 0.00893610 0.00421742
-0.00139539 0.00892762 0.00442161
-0.00162777 0.00892202 0.00454463
-0.00167157 0.00892118 0.00457329
-0.00171536 0.00892034 0.00460196
-0.00175916 0.00891949 0.00463063
-0.00180295 0.00891865 0.00465928
-0.00341146 0.00887698 0.00543700
-0.00344852 0.00887684 0.00547573
-0.00348879 0.00887635 0.00550935
-0.00353233 0.00887551 0.00553785
-0.00357260 0.00887502 0.00557147
-0.00447368 0.00885490 0.00608937
-0.00466820 0.00885315 0.00626728
-0.00470518 0.00885300 0.00630593
-0.00474855 0.00885217 0.00633433
-0.00478871 0.00885168 0.00636785
-0.00482569 0.00885154 0.00640650
-0.00485949 0.00885174 0.00645028
-0.00489011 0.00885229 0.00649922
-0.00492710 0.00885214 0.00653787
-0.00497044 0.00885131 0.00656624
-0.00500424 0.00885151 0.00661004
-0.00503805 0.00885171 0.00665383
-0.00515218 0.00885093 0.00676465
-0.00536469 0.00886273 0.00730869
-0.00540172 0.00886258 0.00734739
-0.00546312 0.00886367 0.00744548
-0.00549065 0.00886457 0.00749972
-0.00552768 0.00886442 0.00753844
-0.00556472 0.00886428 0.00757714
-0.00560176 0.00886413 0.00761585
-0.00563564 0.00886433 0.00765973
-0.00567584 0.00886385 0.00769328
-0.00571287 0.00886370 0.00773199
-0.00578696 0.00886341 0.00780942
-0.00582714 0.00886292 0.00784294
-0.00710095 0.00883275 0.00853093
-0.00717794 0.00883212 0.00860296
-0.00721798 0.00883163 0.00863639
-0.00725493 0.00883149 0.00867499
-0.00729497 0.00883100 0.00870840
-0.00733191 0.00883086 0.00874701
-0.00736886 0.00883072 0.00878564
-0.00740580 0.00883057 0.00882424
-0.00744274 0.00883043 0.00886285
-0.00747968 0.00883028 0.00890146
-0.00751662 0.00883014 0.00894007
-0.00755047 0.00883034 0.00898388
-0.00759050 0.00882985 0.00901729
-0.00762745 0.00882971 0.00905590
-0.00781751 0.00888019 0.01056117
-0.00786084 0.00887936 0.01058939
-0.00794128 0.00887837 0.01065642
-0.00943990 0.00883857 0.01135606
-0.00947994 0.00883808 0.01138942
-0.00951694 0.00883794 0.01142809
-0.00955696 0.00883745 0.01146147
-0.00967705 0.00883599 0.01156156
-0.00993600 0.00883498 0.01183222
-0.01040109 0.00889662 0.01393682
-0.01044133 0.00889613 0.01397030
-0.01047856 0.00889598 0.01400921
-0.01051578 0.00889584 0.01404811
-0.01055300 0.00889569 0.01408702
-0.01059023 0.00889555 0.01412591
-0.01062443 0.00889575 0.01417024
-0.01065864 0.00889596 0.01421456
-0.01069286 0.00889616 0.01425889
-0.01072707 0.00889636 0.01430324
-0.01075828 0.00889691 0.01435299
-0.01079249 0.00889712 0.01439734
-0.01083575 0.00889627 0.01442538
-0.01175300 0.00895765 0.01704064
-0.01178447 0.00895821 0.01709090
-0.01183093 0.00895701 0.01711340
-0.01187438 0.00895616 0.01714145
-0.01191781 0.00895531 0.01716951
-0.01195528 0.00895516 0.01720865
-0.01199273 0.00895501 0.01724781
-0.01203019 0.00895487 0.01728696
-0.01206765 0.00895472 0.01732610
-0.01210213 0.00895493 0.01737082
-0.01214854 0.00895373 0.01739329
-0.02691127 0.00846063 0.02170928
-0.00064774 0.00888810 0.00393452
-0.00069167 0.00888726 0.00396328
-0.00073560 0.00888642 0.00399202
-0.00077953 0.00888558 0.00402077
-0.00082345 0.00888474 0.00404951
-0.00086404 0.00888425 0.00408334
-0.00090127 0.00888410 0.00412226
-0.00098242 0.00888312 0.00418992
-0.00139721 0.00887348 0.00441775
-0.00158246 0.00886909 0.00451718
-0.00162627 0.00886825 0.00454585
-0.00167007 0.00886742 0.00457452
-0.00171057 0.00886692 0.00460829
-0.00175437 0.00886609 0.00463696
-0.00179815 0.00886525 0.00466561
-0.00183534 0.00886510 0.00470448
-0.00341968 0.00882238 0.00542291
-0.00345673 0.00882224 0.00546163
-0.00349701 0.00882175 0.00549525
-0.00353730 0.00882126 0.00552885
-0.00357758 0.00882078 0.00556245
-0.00447539 0.00880109 0.00608547
-0.00462653 0.00880017 0.00623497
-0.00466671 0.00879968 0.00626850
-0.00470688 0.00879920 0.00630203
-0.00474706 0.00879871 0.00633556
-0.00478722 0.00879822 0.00636908
-0.00482420 0.00879808 0.00640774
-0.00486118 0.00879794 0.00644638
-0.00489181 0.00879848 0.00649530
-0.00492561 0.00879868 0.00653909
-0.00496895 0.00879785 0.00656748
-0.00500275 0.00879805 0.00661126
-0.00536320 0.00880920 0.00730991
-0.00545528 0.00881083 0.00745706
-0.00548599 0.00881137 0.00750612
-0.00552303 0.00881122 0.00754483
-0.00556007 0.00881108 0.00758354
-0.00559711 0.00881094 0.00762226
-0.00563415 0.00881079 0.00766097
-0.00567119 0.00881065 0.00769968
-0.00571138 0.00881016 0.00773321
-0.00578547 0.00880987 0.00781064
-0.00717645 0.00877871 0.00860418
-0.00721650 0.00877823 0.00863761
-0.00725654 0.00877774 0.00867102
-0.00729349 0.00877760 0.00870962
-0.00733043 0.00877746 0.00874823
-0.00737047 0.00877697 0.00878164
-0.00740741 0.00877683 0.00882025
-0.00744435 0.00877668 0.00885886
-0.00748129 0.00877654 0.00889747
-0.00751824 0.00877640 0.00893608
-0.00755208 0.00877659 0.00897990
-0.00758902 0.00877645 0.00901851
-0.00762596 0.00877631 0.00905712
-0.00781602 0.00882652 0.01056240
-0.00785934 0.00882569 0.01059061
-0.00790267 0.00882486 0.01061885
-0.00793669 0.00882506 0.01066294
-0.00798310 0.00882388 0.01068586
-0.00947845 0.00878460 0.01139064
-0.00967253 0.00878285 0.01156808
-0.00974651 0.00878256 0.01164542
-0.00989450 0.00878199 0.01180008
-0.00993150 0.00878185 0.01183875
-0.01072859 0.00884220 0.01429904
-0.01075979 0.00884275 0.01434879
-0.01079401 0.00884295 0.01439314
-0.01083726 0.00884211 0.01442119
-0.01177997 0.00890440 0.01709770
-0.01182643 0.00890320 0.01712020
-0.01186987 0.00890235 0.01714826
-0.01191332 0.00890151 0.01717630
-0.01195078 0.00890136 0.01721545
-0.01199123 0.00890087 0.01724905
-0.01202869 0.00890072 0.01728819
-0.01206914 0.00890022 0.01732178
-0.01210360 0.00890043 0.01736650
-0.01231202 0.00913223 0.02354941
-0.01234425 0.00913282 0.02360123
-0.01237646 0.00913340 0.02365306
-0.02681413 0.00841225 0.02169007
-0.02690982 0.00840878 0.02171046
-0.00064289 0.00883460 0.00394085
-0.00069018 0.00883342 0.00396450
-0.00073411 0.00883258 0.00399326
-0.00077803 0.00883174 0.00402200
-0.00082196 0.00883091 0.00405075
-0.00086254 0.00883042 0.00408457
-0.00089978 0.00883027 0.00412349
-0.00098092 0.00882929 0.00419115
-0.00162477 0.00881449 0.00454709
-0.00166527 0.00881400 0.00458086
-0.00170907 0.00881317 0.00460953
-0.00174956 0.00881268 0.00464329
-0.00179005 0.00881219 0.00467704
-0.00183053 0.00881170 0.00471081
-0.00325701 0.00877077 0.00528966
-0.00330380 0.00876960 0.00531307
-0.00338437 0.00876863 0.00538030
-0.00342466 0.00876814 0.00541390
-0.00346171 0.00876800 0.00545263
-0.00349876 0.00876785 0.00549135
-0.00354227 0.00876702 0.00551985
-0.00357932 0.00876688 0.00555857
-0.00361636 0.00876674 0.00559729
-0.00443371 0.00874810 0.00605316
-0.00451408 0.00874713 0.00612022
-0.00462504 0.00874670 0.00623620
-0.00466523 0.00874622 0.00626972
-0.00470539 0.00874573 0.00630325
-0.00474557 0.00874525 0.00633678
-0.00478573 0.00874477 0.00637031
-0.00482272 0.00874462 0.00640896
-0.00485651 0.00874482 0.00645274
-0.00489032 0.00874501 0.00649652
-0.00492730 0.00874487 0.00653519
-0.00496747 0.00874439 0.00656870
-0.00500445 0.00874424 0.00660735
-0.00548133 0.00875817 0.00751252
-0.00551837 0.00875802 0.00755124
-0.00555541 0.00875788 0.00758995
-0.00559562 0.00875739 0.00762348
-0.00562949 0.00875759 0.00766738
-0.00566653 0.00875745 0.00770609
-0.00570989 0.00875662 0.00773445
-0.00578082 0.00875667 0.00781704
-0.00717497 0.00872531 0.00860541
-0.00721501 0.00872483 0.00863883
-0.00725506 0.00872434 0.00867224
-0.00729199 0.00872420 0.00871086
-0.00733205 0.00872371 0.00874425
-0.00736899 0.00872357 0.00878286
-0.00740593 0.00872343 0.00882147
-0.00744287 0.00872328 0.00886008
-0.00747981 0.00872314 0.00889869
-0.00751984 0.00872266 0.00893210
-0.00755369 0.00872285 0.00897591
-0.00759063 0.00872271 0.00901452
-0.00762758 0.00872257 0.00905313
-0.00781763 0.00877251 0.01055834
-0.00785785 0.00877202 0.01059185
-0.00793830 0.00877105 0.01065888
-0.00798160 0.00877022 0.01068710
-0.00967104 0.00872937 0.01156931
-0.00974806 0.00872875 0.01164134
-0.00989603 0.00872817 0.01179600
-0.00993302 0.00872803 0.01183467
-0.01073010 0.00878804 0.01429485
-0.01076432 0.00878824 0.01433918
-0.01079853 0.00878844 0.01438351
-0.01174699 0.00884968 0.01704869
-0.01178146 0.00884988 0.01709339
-0.01182492 0.00884904 0.01712143
-0.01186837 0.00884820 0.01714949
-0.01191182 0.00884736 0.01717754
-0.01194927 0.00884721 0.01721668
-0.01198972 0.00884672 0.01725028
-0.01202718 0.00884657 0.01728944
-0.01206763 0.00884608 0.01732303
-0.01210210 0.00884628 0.01736774
-0.01234271 0.00907744 0.02360250
-0.01237492 0.00907802 0.02365434
-0.01240106 0.00907932 0.02371798
-0.01246734 0.00908471 0.02393267
-0.01252697 0.00908200 0.02393135
-0.02680790 0.00836101 0.02170219
0.00203581 0.00887769 0.00338645
0.00198787 0.00887649 0.00341038
0.00193992 0.00887529 0.00343430
-0.00068533 0.00877991 0.00397083
-0.00072927 0.00877908 0.00399958
-0.00077319 0.00877825 0.00402832
-0.00081711 0.00877742 0.00405708
-0.00085770 0.00877693 0.00409091
-0.00089828 0.00877644 0.00412473
-0.00093885 0.00877595 0.00415857
-0.00162658 0.00876038 0.00454322
-0.00166707 0.00875989 0.00457698
-0.00170758 0.00875941 0.00461075
-0.00174806 0.00875892 0.00464453
-0.00178856 0.00875843 0.00467828
-0.00182904 0.00875794 0.00471205
-0.00186953 0.00875746 0.00474580
-0.00326201 0.00871652 0.00528067
-0.00342964 0.00871390 0.00540492
-0.00346669 0.00871376 0.00544363
-0.00350373 0.00871362 0.00548236
-0.00358751 0.00871231 0.00554445
-0.00462037 0.00869357 0.00624254
-0.00470390 0.00869227 0.00630447
-0.00474408 0.00869179 0.00633800
-0.00478742 0.00869097 0.00636640
-0.00482441 0.00869082 0.00640506
-0.00485820 0.00869102 0.00644884
-0.00489201 0.00869121 0.00649261
-0.00492899 0.00869107 0.00653127
-0.00497233 0.00869025 0.00655966
-0.00500613 0.00869044 0.00660343
-0.00559096 0.00870419 0.00762989
-0.00562800 0.00870404 0.00766860
-0.00566504 0.00870390 0.00770731
-0.00570525 0.00870342 0.00774084
-0.00577933 0.00870313 0.00781827
-0.00721353 0.00867142 0.00864005
-0.00725356 0.00867094 0.00867346
-0.00729051 0.00867080 0.00871208
-0.00733056 0.00867031 0.00874548
-0.00736750 0.00867017 0.00878409
-0.00740444 0.00867003 0.00882269
-0.00744138 0.00866988 0.00886130
-0.00747832 0.00866974 0.00889991
-0.00751527 0.00866960 0.00893852
-0.00781303 0.00871918 0.01056486
-0.00785326 0.00871869 0.01059836
-0.00793371 0.00871772 0.01066540
-0.00943543 0.00867811 0.01135972
-0.00947548 0.00867763 0.01139310
-0.00951550 0.00867715 0.01142648
-0.00955250 0.00867700 0.01146515
-0.00958950 0.00867686 0.01150382
-0.00963256 0.00867604 0.01153187
-0.00967257 0.00867556 0.01156524
-0.00970655 0.00867575 0.01160920
-0.00974657 0.00867527 0.01164256
-0.00989757 0.00867435 0.01179191
-0.00993456 0.00867421 0.01183057
-0.01018361 0.00867030 0.01201472
-0.01066017 0.00873384 0.01420742
-0.01069739 0.00873369 0.01424633
-0.01073161 0.00873389 0.01429066
-0.01076282 0.00873443 0.01434040
-0.01080005 0.00873428 0.01437932
-0.01084328 0.00873345 0.01440737
-0.01165863 0.00878883 0.01677692
-0.01174848 0.00879517 0.01704437
-0.01177995 0.00879572 0.01709463
-0.01182341 0.00879488 0.01712267
-0.01186686 0.00879405 0.01715073
-0.01191030 0.00879321 0.01717877
-0.01195075 0.00879271 0.01721238
-0.01198821 0.00879257 0.01725152
-0.01202567 0.00879242 0.01729068
-0.01206313 0.00879228 0.01732983
-0.01210058 0.00879213 0.01736897
-0.01214103 0.00879164 0.01740256
-0.01217253 0.00879219 0.01745284
-0.01223537 0.00902142 0.02346598
-0.01234116 0.00902206 0.02360377
-0.01237033 0.00902299 0.02366151
-0.01239952 0.00902393 0.02371925
-0.01242442 0.00902980 0.02389978
-0.01245971 0.00903001 0.02394576
-0.01251327 0.00902805 0.02395625
0.01127594 0.00961292 0.01336843
0.00208183 0.00882422 0.00335865
0.00203732 0.00882337 0.00338770
0.00198937 0.00882218 0.00341162
0.00194143 0.00882099 0.00343554
-0.00077837 0.00872372 0.00401938
-0.00082230 0.00872289 0.00404812
-0.00085954 0.00872275 0.00408705
-0.00094401 0.00872143 0.00414962
-0.00158458 0.00870710 0.00451067
-0.00162508 0.00870662 0.00454445
-0.00166889 0.00870579 0.00457311
-0.00170938 0.00870531 0.00460689
-0.00174657 0.00870516 0.00464575
-0.00178706 0.00870467 0.00467952
-0.00182424 0.00870453 0.00471838
-0.00186473 0.00870404 0.00475214
-0.00340081 0.00865948 0.00535211
-0.00343785 0.00865934 0.00539082
-0.00347490 0.00865919 0.00542954
-0.00351194 0.00865905 0.00546826
-0.00355545 0.00865823 0.00549674
-0.00359894 0.00865741 0.00552525
-0.00363921 0.00865693 0.00555885
-0.00367624 0.00865678 0.00559756
-0.00371973 0.00865596 0.00562604
-0.00376321 0.00865514 0.00565451
-0.00461888 0.00864011 0.00624377
-0.00470242 0.00863881 0.00630571
-0.00474259 0.00863833 0.00633922
-0.00478276 0.00863785 0.00637275
-0.00481974 0.00863770 0.00641140
-0.00485672 0.00863756 0.00645006
-0.00492433 0.00863794 0.00653763
-0.00496767 0.00863713 0.00656602
-0.00547834 0.00865107 0.00751498
-0.00551539 0.00865093 0.00755370
-0.00555243 0.00865079 0.00759241
-0.00559580 0.00864997 0.00762075
-0.00562968 0.00865016 0.00766465
-0.00566672 0.00865002 0.00770336
-0.00570691 0.00864954 0.00773689
-0.00728592 0.00861773 0.00871851
-0.00732596 0.00861725 0.00875191
-0.00736602 0.00861677 0.00878531
-0.00739985 0.00861696 0.00882913
-0.00743990 0.00861648 0.00886253
-0.00943394 0.00862463 0.01136096
-0.00947399 0.00862415 0.01139432
-0.00951704 0.00862333 0.01142241
-0.00955404 0.00862318 0.01146106
-0.00959408 0.00862270 0.01149443
-0.00963409 0.00862222 0.01152781
-0.00967412 0.00862174 0.01156116
-0.00993609 0.00862040 0.01182650
-0.01018212 0.00861684 0.01201594
-0.01022513 0.00861603 0.01204395
-0.01027112 0.00861487 0.01206666
-0.01073011 0.00868008 0.01429188
-0.01076433 0.00868027 0.01433621
-0.01079855 0.00868047 0.01438054
-0.01084479 0.00867930 0.01440318
-0.01174697 0.00874102 0.01704560
-0.01177844 0.00874156 0.01709586
-0.01181890 0.00874107 0.01712948
-0.01186236 0.00874024 0.01715752
-0.01190880 0.00873906 0.01718003
-0.01194327 0.00873925 0.01722471
-0.01198073 0.00873911 0.01726387
-0.01201820 0.00873896 0.01730303
-0.01201622 0.00896550 0.02320349
-0.01205453 0.00896535 0.02324353
-0.01209283 0.00896520 0.02328356
-0.01212502 0.00896577 0.02333537
-0.01216332 0.00896562 0.02337539
-0.01220162 0.00896547 0.02341543
-0.01223383 0.00896604 0.02346724
-0.01230740 0.00896611 0.02355321
-0.01234265 0.00896632 0.02359915
-0.01236879 0.00896761 0.02366278
-0.01240101 0.00896818 0.02371462
-0.01242592 0.00897401 0.02389514
-0.01246426 0.00897386 0.02393521
-0.01251173 0.00897263 0.02395754
-0.01827458 0.00845241 0.01700950
-0.02288753 0.00826883 0.01751462
0.01131793 0.00955472 0.01332757
0.01126948 0.00955376 0.01335807
0.00207987 0.00876955 0.00335479
0.00203191 0.00876837 0.00337872
0.00198743 0.00876753 0.00340775
0.00193603 0.00876599 0.00342657
0.00013504 0.00871884 0.00425701
-0.00090195 0.00866809 0.00411701
-0.00095585 0.00866624 0.00413047
-0.00150208 0.00865431 0.00444436
-0.00154589 0.00865349 0.00447305
-0.00158308 0.00865334 0.00451191
-0.00162359 0.00865286 0.00454567
-0.00166408 0.00865237 0.00457945
-0.00170458 0.00865189 0.00461321
-0.00174177 0.00865174 0.00465208
-0.00178226 0.00865126 0.00468585
-0.00182275 0.00865078 0.00471961
-0.00185993 0.00865063 0.00475848
-0.00189713 0.00865049 0.00479734
-0.00340255 0.00860560 0.00534824
-0.00344284 0.00860512 0.00538184
-0.00347988 0.00860497 0.00542055
-0.00352015 0.00860449 0.00545415
-0.00356042 0.00860401 0.00548777
-0.00361037 0.00860252 0.00550602
-0.00365063 0.00860204 0.00553963
-0.00368766 0.00860190 0.00557832
-0.00372791 0.00860142 0.00561191
-0.00377139 0.00860060 0.00564040
-0.00455938 0.00858525 0.00614206
-0.00462377 0.00858597 0.00623475
-0.00466713 0.00858515 0.00626315
-0.00470411 0.00858501 0.00630181
-0.00474428 0.00858453 0.00633532
-0.00478445 0.00858405 0.00636885
-0.00482143 0.00858391 0.00640750
-0.00485841 0.00858376 0.00644615
-0.00492601 0.00858415 0.00653371
-0.00496618 0.00858367 0.00656724
-0.00555094 0.00859724 0.00759363
-0.00559115 0.00859676 0.00762716
-0.00562819 0.00859662 0.00766587
-0.00733069 0.00856318 0.00874272
-0.00737072 0.00856270 0.00877613
-0.00943246 0.00857114 0.01136218
-0.00947250 0.00857066 0.01139554
-0.00951253 0.00857018 0.01142892
-0.00955255 0.00856970 0.01146230
-0.00958955 0.00856956 0.01150097
-0.00963260 0.00856875 0.01152903
-0.00967263 0.00856827 0.01156238
-0.00993460 0.00856693 0.01182772
-0.01018063 0.00856338 0.01201718
-0.01022664 0.00856224 0.01203987
-0.01027264 0.00856109 0.01206258
-0.01075982 0.00862680 0.01434287
-0.01079403 0.00862699 0.01438722
-0.01084029 0.00862583 0.01440984
-0.01171700 0.00868598 0.01699105
-0.01174547 0.00868686 0.01704684
-0.01177694 0.00868740 0.01709710
-0.01182040 0.00868657 0.01712516
-0.01186085 0.00868608 0.01715876
-0.01190729 0.00868490 0.01718126
-0.01194475 0.00868476 0.01722041
-0.01197923 0.00868496 0.01726511
-0.01201669 0.00868481 0.01730427
-0.01201468 0.00891013 0.02320476
-0.01204993 0.00891034 0.02325068
-0.01212043 0.00891076 0.02334251
-0.01216178 0.00891025 0.02337666
-0.01219704 0.00891046 0.02342258
-0.01223229 0.00891067 0.02346851
-0.01230281 0.00891109 0.02356037
-0.01234111 0.00891094 0.02360041
-0.01237030 0.00891186 0.02365814
-0.01239947 0.00891279 0.02371588
-0.01242438 0.00891859 0.02389641
-0.01245967 0.00891880 0.02394238
-0.01820013 0.00839995 0.01693442
-0.01823933 0.00839948 0.01696716
-0.01827581 0.00839934 0.01700529
-0.01881487 0.00835156 0.01637186
-0.01885656 0.00835077 0.01639909
-0.02285021 0.00821711 0.01747830
-0.02288608 0.00821697 0.01751579
-0.02680118 0.00820569 0.02171122
0.01135992 0.00949652 0.01328672
0.01131956 0.00949637 0.01332891
0.01127110 0.00949541 0.01335941
0.00236460 0.00871468 0.00301637
0.00232009 0.00871385 0.00304542
0.00222474 0.00871514 0.00318874
0.00214960 0.00871484 0.00326727
0.00211550 0.00871504 0.00331165
0.00207792 0.00871489 0.00335093
0.00202997 0.00871371 0.00337484
0.00198547 0.00871288 0.00340389
0.00193754 0.00871170 0.00342780
-0.00073145 0.00861687 0.00399309
-0.00077537 0.00861605 0.00402185
-0.00082263 0.00861489 0.00404550
-0.00090712 0.00861358 0.00410806
-0.00149727 0.00860088 0.00445069
-0.00154109 0.00860006 0.00447938
-0.00157828 0.00859991 0.00451824
-0.00161878 0.00859943 0.00455202
-0.00165929 0.00859895 0.00458577
-0.00169648 0.00859880 0.00462465
-0.00173697 0.00859832 0.00465842
-0.00177415 0.00859818 0.00469729
-0.00181466 0.00859770 0.00473106
-0.00185513 0.00859721 0.00476481
-0.00189232 0.00859707 0.00480369
-0.00336403 0.00855220 0.00531074
-0.00340754 0.00855138 0.00533925
-0.00344781 0.00855090 0.00537287
-0.00348485 0.00855076 0.00541157
-0.00352512 0.00855028 0.00544518
-0.00356539 0.00854980 0.00547875
-0.00361210 0.00854866 0.00550215
-0.00365236 0.00854818 0.00553574
-0.00368939 0.00854803 0.00557445
-0.00372964 0.00854755 0.00560804
-0.00376990 0.00854708 0.00564162
-0.00452091 0.00853193 0.00610463
-0.00466564 0.00853169 0.00626437
-0.00558966 0.00854322 0.00762838
-0.00562353 0.00854341 0.00767228
-0.00875365 0.00853317 0.01099469
-0.00939094 0.00851813 0.01133002
-0.00947101 0.00851718 0.01139677
-0.00951406 0.00851637 0.01142485
-0.00963111 0.00851527 0.01153025
-0.00967417 0.00851446 0.01155831
-0.01017915 0.00850992 0.01201840
-0.01022816 0.00850845 0.01203577
-0.01027416 0.00850731 0.01205848
-0.01075230 0.00857366 0.01435496
-0.01078652 0.00857385 0.01439929
-0.01083278 0.00857270 0.01442192
-0.01168402 0.00863129 0.01694204
-0.01171248 0.00863216 0.01699784
-0.01174095 0.00863304 0.01705365
-0.01177543 0.00863324 0.01709835
-0.01181889 0.00863241 0.01712640
-0.01186234 0.00863158 0.01715446
-0.01190578 0.00863075 0.01718250
-0.01194324 0.00863061 0.01722164
-0.01198070 0.00863046 0.01726080
-0.01205144 0.00885461 0.02324606
-0.01208974 0.00885446 0.02328609
-0.01234262 0.00885520 0.02359578
-0.01237180 0.00885612 0.02365351
-0.01240098 0.00885705 0.02371125
-0.01241979 0.00886353 0.02390358
-0.01245508 0.00886374 0.02394958
-0.01249342 0.00886359 0.02398965
-0.01819866 0.00834720 0.01693563
-0.02288464 0.00816511 0.01751699
-0.02679732 0.00815412 0.02171788
0.01126868 0.00943667 0.01335490
0.00236959 0.00866072 0.00302272
0.00232854 0.00866023 0.00305687
0.00230139 0.00866112 0.00311145
0.00226382 0.00866097 0.00315072
0.00222972 0.00866117 0.00319509
0.00219215 0.00866102 0.00323437
0.00215458 0.00866088 0.00327364
0.00211701 0.00866073 0.00331290
0.00207943 0.00866058 0.00335217
0.00203493 0.00865975 0.00338121
0.00199044 0.00865892 0.00341024
0.00194250 0.00865774 0.00343415
-0.00069271 0.00856318 0.00395541
-0.00073663 0.00856236 0.00398417
-0.00078057 0.00856154 0.00401290
-0.00086839 0.00855990 0.00407039
-0.00091562 0.00855875 0.00409402
-0.00149247 0.00854744 0.00445701
-0.00153628 0.00854663 0.00448570
-0.00157347 0.00854648 0.00452457
-0.00161397 0.00854600 0.00455835
-0.00165448 0.00854552 0.00459212
-0.00169167 0.00854538 0.00463100
-0.00172886 0.00854523 0.00466986
-0.00176936 0.00854475 0.00470363
-0.00180985 0.00854427 0.00473739
-0.00184704 0.00854413 0.00477627
-0.00188423 0.00854398 0.00481513
-0.00192142 0.00854384 0.00485401
-0.00336254 0.00849865 0.00531198
-0.00340281 0.00849818 0.00534558
-0.00344309 0.00849770 0.00537919
-0.00348012 0.00849755 0.00541790
-0.00352039 0.00849708 0.00545150
-0.00356390 0.00849627 0.00547999
-0.00361061 0.00849512 0.00550337
-0.00365409 0.00849431 0.00553186
-0.00882931 0.00847899 0.01106808
-0.00946952 0.00846369 0.01139800
-0.00951258 0.00846289 0.01142608
-0.00963266 0.00846146 0.01152617
-0.00967268 0.00846099 0.01155953
-0.00993463 0.00845965 0.01182486
-0.01017464 0.00845680 0.01202492
-0.01021764 0.00845599 0.01205295
-0.01026666 0.00845452 0.01207033
-0.01074780 0.00852018 0.01436162
-0.01078502 0.00852003 0.01440053
-0.01083128 0.00851888 0.01442315
-0.01167952 0.00857748 0.01694883
-0.01170798 0.00857835 0.01700462
-0.01173945 0.00857888 0.01705489
-0.01177392 0.00857908 0.01709959
-0.01181438 0.00857859 0.01713321
-0.01186083 0.00857743 0.01715571
-0.01190129 0.00857694 0.01718929
-0.01194174 0.00857646 0.01722290
-0.01197920 0.00857631 0.01726204
-0.01234413 0.00879947 0.02359116
-0.01240911 0.00880917 0.02392259
-0.01244745 0.00880902 0.02396266
-0.02284732 0.00811339 0.01748069
-0.02288319 0.00811325 0.01751818
0.01126625 0.00937793 0.01335038
0.00241213 0.00860690 0.00298978
0.00237457 0.00860676 0.00302905
0.00233353 0.00860627 0.00306323
0.00230290 0.00860681 0.00311269
0.00226533 0.00860666 0.00315197
0.00223123 0.00860686 0.00319634
0.00219712 0.00860705 0.00324070
0.00215609 0.00860656 0.00327487
0.00211852 0.00860642 0.00331414
0.00208095 0.00860627 0.00335342
0.00203644 0.00860544 0.00338244
0.00199542 0.00860495 0.00341660
-0.00073513 0.00850852 0.00398539
-0.00082965 0.00850622 0.00403270
-0.00149097 0.00849367 0.00445825
-0.00153478 0.00849286 0.00448693
-0.00157198 0.00849272 0.00452580
-0.00161248 0.00849224 0.00455958
-0.00164967 0.00849209 0.00459845
-0.00168686 0.00849195 0.00463733
-0.00172736 0.00849147 0.00467110
-0.00176456 0.00849132 0.00470997
-0.00180175 0.00849118 0.00474884
-0.00183894 0.00849103 0.00478771
-0.00187614 0.00849089 0.00482659
-0.00191333 0.00849074 0.00486545
-0.00195052 0.00849060 0.00490433
-0.00335781 0.00844544 0.00531830
-0.00340132 0.00844463 0.00534680
-0.00344483 0.00844382 0.00537531
-0.00348186 0.00844368 0.00541402
-0.00352214 0.00844321 0.00544763
-0.00356241 0.00844273 0.00548121
-0.00361235 0.00844126 0.00549950
-0.00365583 0.00844046 0.00552797
-0.00372666 0.00844050 0.00561048
-0.00377015 0.00843969 0.00563896
-0.00875679 0.00842539 0.01098657
-0.00879689 0.00842492 0.01102000
-0.00883088 0.00842511 0.01106401
-0.00887098 0.00842463 0.01109743
-0.00890803 0.00842449 0.01113614
-0.00894812 0.00842401 0.01116958
-0.00951109 0.00840941 0.01142730
-0.00962814 0.00840831 0.01153271
-0.00967119 0.00840751 0.01156075
-0.00974820 0.00840689 0.01163279
-0.01026817 0.00840074 0.01206625
-0.01078653 0.00846588 0.01439634
-0.01477227 0.00812804 0.00997867
-0.01484708 0.00812745 0.01004881
-0.01488308 0.00812731 0.01008645
-0.01167201 0.00852400 0.01696117
-0.01170047 0.00852487 0.01701696
-0.01173495 0.00852506 0.01706167
-0.01176941 0.00852525 0.01710638
-0.01180988 0.00852477 0.01713999
-0.01185633 0.00852361 0.01716249
-0.01189678 0.00852313 0.01719609
-0.01193424 0.00852298 0.01723525
-0.01208970 0.00874338 0.02328275
-0.01212496 0.00874358 0.02332866
-0.01216327 0.00874343 0.02336869
-0.01219851 0.00874364 0.02341461
-0.01223376 0.00874384 0.02346054
-0.01234259 0.00874410 0.02359243
-0.01241062 0.00875339 0.02391794
-0.01244591 0.00875359 0.02396394
-0.02284588 0.00806153 0.01748186
-0.02288175 0.00806139 0.01751937
-0.02291763 0.00806125 0.01755686
0.00241365 0.00855259 0.00299104
0.00237608 0.00855245 0.00303030
0.00233851 0.00855230 0.00306956
0.00230441 0.00855250 0.00311394
0.00226685 0.00855235 0.00315320
0.00223275 0.00855254 0.00319758
0.00219517 0.00855240 0.00323686
0.00215761 0.00855225 0.00327612
0.00212003 0.00855211 0.00331539
0.00208246 0.00855196 0.00335465
0.00203796 0.00855113 0.00338370
0.00199693 0.00855065 0.00341785
0.00032472 0.00850290 0.00406133
-0.00067969 0.00845650 0.00397314
-0.00073031 0.00845502 0.00399171
-0.00082482 0.00845273 0.00403902
-0.00114471 0.00844220 0.00412485
-0.00123241 0.00844058 0.00418225
-0.00144896 0.00844038 0.00442570
-0.00148948 0.00843990 0.00445947
-0.00152998 0.00843943 0.00449327
-0.00156717 0.00843928 0.00453214
-0.00160768 0.00843880 0.00456591
-0.00164487 0.00843866 0.00460479
-0.00168537 0.00843818 0.00463857
-0.00172256 0.00843804 0.00467743
-0.00175975 0.00843789 0.00471631
-0.00179695 0.00843775 0.00475518
-0.00183414 0.00843760 0.00479406
-0.00187133 0.00843746 0.00483292
-0.00190524 0.00843765 0.00487691
-0.00339983 0.00839109 0.00534803
-0.00344334 0.00839029 0.00537655
-0.00348361 0.00838981 0.00541015
-0.00352389 0.00838934 0.00544374
-0.00356415 0.00838886 0.00547734
-0.00361086 0.00838773 0.00550072
-0.00365434 0.00838693 0.00552920
-0.00372517 0.00838697 0.00561172
-0.00875836 0.00837151 0.01098251
-0.00879846 0.00837104 0.01101594
-0.00883245 0.00837123 0.01105994
-0.00887255 0.00837075 0.01109336
-0.00890959 0.00837061 0.01113209
-0.00895274 0.00836981 0.01116021
-0.00951264 0.00835560 0.01142323
-0.00962969 0.00835451 0.01152863
-0.00967273 0.00835371 0.01155668
-0.00970670 0.00835389 0.01160064
-0.00974671 0.00835342 0.01163401
-0.00993770 0.00835205 0.01181670
-0.00997470 0.00835190 0.01185535
-0.01006072 0.00835030 0.01191142
-0.01010372 0.00834951 0.01193945
-0.01022370 0.00834809 0.01203945
-0.01027571 0.00834631 0.01205152
-0.01163304 0.00846999 0.01692326
-0.01166450 0.00847052 0.01697350
-0.01169597 0.00847104 0.01702376
-0.01173344 0.00847090 0.01706292
-0.01176791 0.00847109 0.01710762
-0.01181136 0.00847027 0.01713568
-0.01185482 0.00846945 0.01716372
-0.01189528 0.00846897 0.01719734
-0.01193274 0.00846883 0.01723649
-0.01212036 0.00868857 0.02333581
-0.01216172 0.00868807 0.02336995
-0.01219697 0.00868827 0.02341588
-0.01223221 0.00868847 0.02346180
-0.01234409 0.00868837 0.02358779
-0.02284443 0.00800967 0.01748306
-0.02288031 0.00800953 0.01752055
-0.02291618 0.00800939 0.01755805
0.00241516 0.00849829 0.00299227
0.00237759 0.00849814 0.00303154
0.00233655 0.00849766 0.00306572
0.00230245 0.00849785 0.00311008
0.00226488 0.00849770 0.00314935
0.00223079 0.00849789 0.00319372
0.00219321 0.00849775 0.00323299
0.00215565 0.00849760 0.00327225
0.00211807 0.00849746 0.00331151
0.00208051 0.00849731 0.00335078
0.00203601 0.00849649 0.00337982
0.00199152 0.00849567 0.00340885
0.00194704 0.00849484 0.00343789
0.00036024 0.00844864 0.00401835
0.00032622 0.00844882 0.00406256
-0.00077272 0.00840037 0.00402169
-0.00148798 0.00838613 0.00446071
-0.00152848 0.00838566 0.00449449
-0.00156567 0.00838551 0.00453337
-0.00160618 0.00838504 0.00456715
-0.00164337 0.00838489 0.00460601
-0.00168057 0.00838475 0.00464489
-0.00171777 0.00838460 0.00468376
-0.00175496 0.00838446 0.00472264
-0.00179216 0.00838431 0.00476152
-0.00182935 0.00838417 0.00480039
-0.00186655 0.00838402 0.00483926
-0.00340804 0.00833656 0.00533396
-0.00344832 0.00833609 0.00536755
-0.00348859 0.00833562 0.00540115
-0.00352885 0.00833515 0.00543475
-0.00356589 0.00833500 0.00547345
-0.00361259 0.00833387 0.00549683
-0.00365609 0.00833308 0.00552531
-0.00875687 0.00831796 0.01098374
-0.00880004 0.00831716 0.01101187
-0.00883401 0.00831735 0.01105589
-0.00887413 0.00831688 0.01108930
-0.00891422 0.00831641 0.01112272
-0.00895736 0.00831561 0.01115084
-0.01010223 0.00829605 0.01194067
-0.01160608 0.00841465 0.01686315
-0.01163454 0.00841550 0.01691894
-0.01166599 0.00841603 0.01696919
-0.01169746 0.00841655 0.01701945
-0.01173193 0.00841674 0.01706415
-0.01176640 0.00841693 0.01710887
-0.01180686 0.00841645 0.01714247
-0.01185033 0.00841563 0.01717052
-0.01189078 0.00841515 0.01720412
-0.01192825 0.00841501 0.01724328
-0.01208358 0.00863300 0.02329117
-0.01211882 0.00863320 0.02333708
-0.01219238 0.00863325 0.02342305
-0.01222763 0.00863345 0.02346896
-0.01226594 0.00863330 0.02350900
-0.01234255 0.00863300 0.02358906
-0.01272499 0.00865720 0.02468045
-0.01275733 0.00865775 0.02473249
-0.02284299 0.00795781 0.01748425
-0.02287886 0.00795767 0.01752174
0.00241667 0.00844398 0.00299352
0.00237910 0.00844383 0.00303279
0.00233807 0.00844335 0.00306696
0.00230397 0.00844354 0.00311132
0.00226639 0.00844339 0.00315058
0.00223230 0.00844358 0.00319496
0.00219472 0.00844344 0.00323422
0.00215715 0.00844329 0.00327350
0.00211612 0.00844281 0.00330764
0.00207855 0.00844266 0.00334692
0.00203406 0.00844184 0.00337596
0.00199303 0.00844136 0.00341010
0.00195201 0.00844088 0.00344425
0.00039577 0.00839437 0.00397539
0.00035837 0.00839422 0.00401449
0.00032435 0.00839441 0.00405869
0.00025576 0.00840888 0.00452925
-0.00066330 0.00835013 0.00399597
-0.00144596 0.00833283 0.00442816
-0.00148979 0.00833203 0.00445685
-0.00152698 0.00833189 0.00449573
-0.00156749 0.00833141 0.00452949
-0.00160468 0.00833127 0.00456837
-0.00164518 0.00833079 0.00460215
-0.00168238 0.00833065 0.00464103
-0.00171957 0.00833050 0.00467990
-0.00175676 0.00833036 0.00471877
-0.00179067 0.00833054 0.00476275
-0.00183115 0.00833007 0.00479652
-0.00186505 0.00833025 0.00484049
-0.00340332 0.00828335 0.00534028
-0.00344683 0.00828255 0.00536877
-0.00348710 0.00828208 0.00540237
-0.00352736 0.00828161 0.00543597
-0.00356762 0.00828114 0.00546958
-0.00361110 0.00828035 0.00549807
-0.00365137 0.00827988 0.00553165
-0.00872140 0.00826423 0.01094095
-0.00875843 0.00826409 0.01097968
-0.00879855 0.00826362 0.01101309
-0.00883559 0.00826347 0.01105180
-0.00887569 0.00826300 0.01108523
-0.00891273 0.00826286 0.01112394
-0.00895893 0.00826174 0.01114678
-0.00899902 0.00826127 0.01118019
-0.01156411 0.00836098 0.01683080
-0.01160457 0.00836050 0.01686440
-0.01163303 0.00836135 0.01692018
-0.01166449 0.00836187 0.01697043
-0.01169896 0.00836206 0.01701513
-0.01173043 0.00836258 0.01706539
-0.01176489 0.00836276 0.01711011
-0.01180536 0.00836228 0.01714371
-0.01184581 0.00836181 0.01717733
-0.01188328 0.00836166 0.01721647
-0.01192075 0.00836151 0.01725563
-0.01196121 0.00836104 0.01728922
-0.01211423 0.00857817 0.02334425
-0.01219083 0.00857788 0.02342431
-0.01222610 0.00857808 0.02347024
-0.01234101 0.00857763 0.02359034
-0.02284154 0.00790595 0.01748544
-0.02287742 0.00790581 0.01752293
0.00242166 0.00839000 0.00299987
0.00238062 0.00838952 0.00303403
0.00233958 0.00838904 0.00306821
0.00230548 0.00838923 0.00311257
0.00226790 0.00838908 0.00315183
0.00223381 0.00838927 0.00319621
0.00219624 0.00838913 0.00323547
0.00215866 0.00838898 0.00327474
0.00211763 0.00838850 0.00330889
0.00208006 0.00838835 0.00334816
0.00203904 0.00838787 0.00338231
0.00199801 0.00838739 0.00341646
0.00195698 0.00838691 0.00345060
0.00039049 0.00833963 0.00396641
0.00035648 0.00833982 0.00401062
0.00032246 0.00834000 0.00405483
0.00026406 0.00835538 0.00454077
-0.00070240 0.00829580 0.00403105
-0.00144447 0.00827906 0.00442940
-0.00148829 0.00827826 0.00445808
-0.00152548 0.00827812 0.00449696
-0.00156268 0.00827797 0.00453584
-0.00160319 0.00827750 0.00456960
-0.00164039 0.00827735 0.00460848
-0.00168088 0.00827688 0.00464226
-0.00171477 0.00827707 0.00468624
-0.00175197 0.00827692 0.00472510
-0.00178586 0.00827710 0.00476909
-0.00182305 0.00827696 0.00480796
-0.00186025 0.00827681 0.00484684
-0.00336156 0.00823028 0.00530790
-0.00340506 0.00822949 0.00533640
-0.00344534 0.00822902 0.00537001
-0.00348561 0.00822855 0.00540361
-0.00352587 0.00822808 0.00543720
-0.00356613 0.00822761 0.00547080
-0.00360962 0.00822682 0.00549929
-0.00364988 0.00822635 0.00553288
-0.00368690 0.00822621 0.00557157
-0.00864582 0.00821097 0.01086475
-0.00868286 0.00821083 0.01090346
-0.00871991 0.00821068 0.01094219
-0.00875694 0.00821054 0.01098090
-0.00879706 0.00821007 0.01101433
-0.00883410 0.00820993 0.01105304
-0.00887420 0.00820946 0.01108646
-0.00891430 0.00820899 0.01111987
-0.00895744 0.00820820 0.01114801
-0.00899753 0.00820773 0.01118141
-0.00904373 0.00820662 0.01120424
