ply
format ascii 1.0
element vertex 1446
property float x
property float y
property float z
end_header
0.00307604 0.01158659 0.04232848
0.00312640 0.01158567 0.04233548
0.00317585 0.01158747 0.04230897
0.00322590 0.01158746 0.04230480
0.00327579 0.01158790 0.04229505
0.00332554 0.01158879 0.04227971
0.00337529 0.01158969 0.04226437
0.00342503 0.01159058 0.04224904
0.00587317 0.01156025 0.04241318
0.00592285 0.01155979 0.04241458
0.00597246 0.01155978 0.04241043
0.00602195 0.01156067 0.04239517
0.00607155 0.01156066 0.04239103
0.00612109 0.01156110 0.04238132
0.00617074 0.01156064 0.04238273
0.00745852 0.01154065 0.04251890
0.00755725 0.01153974 0.04252169
0.00760656 0.01154062 0.04250647
0.00765588 0.01154196 0.04248573
0.00770521 0.01154240 0.04247606
0.00775455 0.01154149 0.04248299
0.00780388 0.01154104 0.04248437
0.00785318 0.01154192 0.04246917
0.00790250 0.01154147 0.04247057
0.00795180 0.01154235 0.04245536
0.00800111 0.01154279 0.04244570
0.00805041 0.01154368 0.04243049
0.00809972 0.01154501 0.04240976
0.00814903 0.01154590 0.04239456
0.00819835 0.01154768 0.04236828
0.00824764 0.01154767 0.04236415
0.00829693 0.01154811 0.04235449
0.00834624 0.01154899 0.04233928
0.00839556 0.01155033 0.04231855
0.00844485 0.01155077 0.04230888
0.00849416 0.01155165 0.04229368
0.00946907 0.01193247 0.03750150
0.00951971 0.01193432 0.03747426
0.01066484 0.01159737 0.04154140
0.01076331 0.01159825 0.04152210
0.01081201 0.01159599 0.04154582
0.01086123 0.01159643 0.04153618
0.01091054 0.01159731 0.04152098
0.01095967 0.01159730 0.04151690
0.01100898 0.01159819 0.04150170
0.01105829 0.01159907 0.04148649
0.01110750 0.01159951 0.04147686
0.01115681 0.01160040 0.04146165
0.01120641 0.01160263 0.04142976
0.01125583 0.01160397 0.04140899
0.01130493 0.01160395 0.04140492
0.01135435 0.01160529 0.04138415
0.01140345 0.01160528 0.04138008
0.01244077 0.01162974 0.04098828
0.01249010 0.01163062 0.04097307
0.01253943 0.01163151 0.04095787
0.01258890 0.01163285 0.04093708
0.01263823 0.01163374 0.04092187
0.01273644 0.01163416 0.04090820
0.01428528 0.01170691 0.03987524
0.01433457 0.01170735 0.03986563
0.01443433 0.01171094 0.03981258
0.01448402 0.01171229 0.03979167
0.01453350 0.01171318 0.03977641
0.01458341 0.01171498 0.03974989
0.01468238 0.01171676 0.03971937
0.01473208 0.01171810 0.03969848
0.01578900 0.01176962 0.03897040
0.01583884 0.01177097 0.03894943
0.01588795 0.01177095 0.03894548
0.01593755 0.01177184 0.03893018
0.01598690 0.01177228 0.03892057
0.01603751 0.01177500 0.03888258
0.01608813 0.01177772 0.03884457
0.01613775 0.01177861 0.03882927
0.01686268 0.01184119 0.03799316
0.01691246 0.01184208 0.03797781
0.01696195 0.01184251 0.03796820
0.01701145 0.01184295 0.03795858
0.01706151 0.01184430 0.03793751
0.01711129 0.01184520 0.03792216
0.01716136 0.01184655 0.03790107
0.01721113 0.01184745 0.03788573
0.01726091 0.01184834 0.03787038
0.01731100 0.01184970 0.03784931
0.01736078 0.01185059 0.03783396
0.01741056 0.01185149 0.03781861
0.01746034 0.01185238 0.03780326
0.01751042 0.01185374 0.03778218
0.01756020 0.01185463 0.03776683
0.01760937 0.01185460 0.03776294
0.01765946 0.01185596 0.03774187
0.01771047 0.01185870 0.03770357
0.01776025 0.01185960 0.03768823
0.01838750 0.01191251 0.03698005
0.01843809 0.01191433 0.03695311
0.01848769 0.01191477 0.03694348
0.01853729 0.01191520 0.03693385
0.01858856 0.01191796 0.03689536
0.01863917 0.01191978 0.03686841
0.01868945 0.01192115 0.03684723
0.01873939 0.01192204 0.03683183
-0.00268125 0.01175946 0.04002656
0.00307552 0.01153555 0.04231358
0.00312603 0.01153418 0.04232617
0.00317564 0.01153553 0.04230525
0.00322553 0.01153597 0.04229549
0.00327558 0.01153596 0.04229133
0.00337493 0.01153820 0.04225506
0.00342482 0.01153865 0.04224531
0.00587289 0.01150903 0.04240391
0.00592251 0.01150902 0.04239976
0.00607105 0.01151124 0.04235953
0.00745832 0.01148871 0.04252073
0.00755703 0.01148825 0.04251799
0.00760634 0.01148958 0.04249725
0.00765566 0.01149091 0.04247651
0.00770499 0.01149135 0.04246683
0.00775433 0.01149046 0.04247376
0.00780366 0.01148956 0.04248068
0.00785297 0.01149000 0.04247101
0.00790229 0.01148955 0.04247241
0.00795159 0.01149088 0.04245168
0.00800089 0.01149087 0.04244754
0.00809950 0.01149265 0.04241714
0.00814880 0.01149353 0.04240194
0.00819812 0.01149486 0.04238120
0.00839532 0.01149796 0.04232593
0.00849393 0.01149973 0.04229553
0.00854325 0.01150107 0.04227479
0.00941840 0.01187973 0.03750165
0.00946889 0.01188017 0.03749189
0.00951949 0.01188155 0.03747047
0.00957009 0.01188293 0.03744906
0.00962064 0.01188384 0.03743348
0.01071369 0.01154542 0.04153918
0.01076301 0.01154631 0.04152396
0.01081170 0.01154406 0.04154770
0.01086101 0.01154495 0.04153249
0.01091033 0.01154584 0.04151729
0.01095945 0.01154583 0.04151320
0.01100886 0.01154716 0.04149245
0.01105807 0.01154760 0.04148281
0.01110729 0.01154804 0.04147317
0.01115669 0.01154937 0.04145239
0.01120620 0.01155115 0.04142606
0.01125551 0.01155204 0.04141086
0.01130462 0.01155203 0.04140678
0.01135403 0.01155336 0.04138602
0.01140324 0.01155380 0.04137638
0.01160093 0.01155914 0.04129329
0.01229257 0.01157558 0.04103021
0.01234176 0.01157602 0.04102060
0.01239109 0.01157691 0.04100539
0.01244055 0.01157824 0.04098459
0.01248988 0.01157913 0.04096939
0.01253921 0.01158002 0.04095417
0.01258869 0.01158135 0.04093339
0.01263802 0.01158224 0.04091817
0.01273623 0.01158266 0.04090451
0.01278571 0.01158400 0.04088372
0.01423520 0.01165347 0.03989805
0.01428488 0.01165481 0.03987718
0.01443391 0.01165883 0.03981450
0.01448360 0.01166018 0.03979361
0.01453267 0.01166016 0.03978963
0.01548976 0.01170976 0.03909247
0.01558847 0.01171064 0.03907323
0.01563806 0.01171153 0.03905794
0.01583838 0.01171874 0.03895138
0.01593709 0.01171961 0.03893214
0.01603679 0.01172230 0.03889021
0.01608716 0.01172456 0.03885789
0.01613728 0.01172636 0.03883123
0.01618817 0.01172954 0.03878753
0.01623857 0.01173180 0.03875518
0.01628819 0.01173269 0.03873989
0.01633755 0.01173312 0.03873028
0.01638716 0.01173401 0.03871498
0.01691169 0.01178920 0.03798555
0.01696118 0.01178963 0.03797592
0.01701067 0.01179007 0.03796630
0.01706073 0.01179142 0.03794524
0.01711051 0.01179231 0.03792989
0.01716056 0.01179367 0.03790881
0.01721035 0.01179456 0.03789346
0.01726041 0.01179592 0.03787239
0.01731019 0.01179681 0.03785704
0.01735997 0.01179771 0.03784169
0.01740974 0.01179860 0.03782634
0.01745953 0.01179950 0.03781100
0.01750960 0.01180085 0.03778991
0.01755969 0.01180220 0.03776884
0.01760885 0.01180218 0.03776495
0.01765924 0.01180399 0.03773814
0.01770994 0.01180627 0.03770559
0.01776003 0.01180762 0.03768450
0.01838696 0.01185992 0.03698209
0.01843755 0.01186175 0.03695513
0.01848682 0.01186172 0.03695129
0.01853674 0.01186261 0.03693590
0.01858768 0.01186490 0.03690317
0.01863828 0.01186672 0.03687623
0.01868889 0.01186855 0.03684928
0.01873849 0.01186898 0.03683965
-0.00268181 0.01170681 0.04001696
-0.00262992 0.01170633 0.04001863
0.00307516 0.01148405 0.04230426
0.00312581 0.01148225 0.04232244
0.00317542 0.01148359 0.04230152
0.00322532 0.01148404 0.04229176
0.00327536 0.01148403 0.04228760
0.00337472 0.01148627 0.04225133
0.00342447 0.01148716 0.04223600
0.00701311 0.01144569 0.04244912
0.00706252 0.01144613 0.04243943
0.00755682 0.01143676 0.04251429
0.00770477 0.01144031 0.04245761
0.00775411 0.01143898 0.04247007
0.00780345 0.01143808 0.04247700
0.00785276 0.01143852 0.04246733
0.00790208 0.01143763 0.04247425
0.00795138 0.01143852 0.04245906
0.00878983 0.01145848 0.04213966
0.00883903 0.01145758 0.04214662
0.00893769 0.01145980 0.04211067
0.00941818 0.01182696 0.03749786
0.00946872 0.01182787 0.03748228
0.00951932 0.01182925 0.03746086
0.00956987 0.01183016 0.03744528
0.00962048 0.01183154 0.03742386
0.01066415 0.01149305 0.04155070
0.01081131 0.01149169 0.04155512
0.01090993 0.01149346 0.04152472
0.01095915 0.01149391 0.04151508
0.01100846 0.01149479 0.04149988
0.01105766 0.01149523 0.04149024
0.01120569 0.01149834 0.04143907
0.01125499 0.01149922 0.04142387
0.01130420 0.01149966 0.04141423
0.01135361 0.01150100 0.04139346
0.01140292 0.01150188 0.04137826
0.01219329 0.01152097 0.04107369
0.01239073 0.01152497 0.04100728
0.01244020 0.01152630 0.04098649
0.01248953 0.01152719 0.04097128
0.01253885 0.01152807 0.04095608
0.01263780 0.01153074 0.04091448
0.01273586 0.01153072 0.04090640
0.01278519 0.01153161 0.04089119
0.01423519 0.01160227 0.03988872
0.01428466 0.01160316 0.03987348
0.01433414 0.01160405 0.03985822
0.01438402 0.01160584 0.03983170
0.01443370 0.01160718 0.03981079
0.01448339 0.01160852 0.03978992
0.01453266 0.01160896 0.03978029
0.01458236 0.01161030 0.03975940
0.01468111 0.01161163 0.03973451
0.01548931 0.01165754 0.03909442
0.01553843 0.01165752 0.03909047
0.01558801 0.01165842 0.03907518
0.01563784 0.01165976 0.03905423
0.01583817 0.01166696 0.03894767
0.01593687 0.01166783 0.03892843
0.01598647 0.01166872 0.03891315
0.01603632 0.01167007 0.03889218
0.01608668 0.01167232 0.03885986
0.01613732 0.01167503 0.03882185
0.01618770 0.01167729 0.03878950
0.01623783 0.01167909 0.03876284
0.01628771 0.01168043 0.03874186
0.01633733 0.01168132 0.03872657
0.01638695 0.01168222 0.03871126
0.01643657 0.01168311 0.03869596
0.01691091 0.01173632 0.03799327
0.01696068 0.01173721 0.03797792
0.01701017 0.01173765 0.03796831
0.01706023 0.01173900 0.03794722
0.01711000 0.01173989 0.03793189
0.01716007 0.01174125 0.03791082
0.01720984 0.01174214 0.03789547
0.01725990 0.01174349 0.03787439
0.01730968 0.01174439 0.03785905
0.01735945 0.01174528 0.03784370
0.01740924 0.01174618 0.03782836
0.01745901 0.01174707 0.03781301
0.01750908 0.01174843 0.03779192
0.01755916 0.01174978 0.03777084
0.01760864 0.01175021 0.03776123
0.01765872 0.01175157 0.03774014
0.01770942 0.01175384 0.03770760
0.01776013 0.01175611 0.03767502
0.01838642 0.01180734 0.03698412
0.01843700 0.01180916 0.03695717
0.01848660 0.01180959 0.03694756
0.01853620 0.01181003 0.03693794
0.01858712 0.01181231 0.03690521
0.01863773 0.01181413 0.03687826
0.01868868 0.01181642 0.03684554
0.01873828 0.01181685 0.03683591
0.02454333 0.01332012 0.01762545
-0.00268203 0.01165370 0.04001315
-0.00263014 0.01165321 0.04001483
-0.00078904 0.01150014 0.04177383
-0.00073799 0.01149967 0.04177530
0.00307509 0.01143166 0.04230613
0.00312560 0.01143031 0.04231872
0.00317520 0.01143165 0.04229780
0.00322510 0.01143210 0.04228804
0.00327514 0.01143210 0.04228388
0.00337436 0.01143478 0.04224202
0.00342411 0.01143568 0.04222667
0.00347386 0.01143657 0.04221134
0.00352347 0.01143791 0.04219042
0.00701298 0.01139280 0.04246205
0.00745788 0.01138616 0.04250781
0.00750723 0.01138616 0.04250368
0.00765521 0.01138882 0.04245806
0.00770455 0.01138926 0.04244839
0.00775389 0.01138838 0.04245530
0.00780323 0.01138705 0.04246777
0.00785255 0.01138749 0.04245810
0.00790186 0.01138617 0.04247056
0.00795117 0.01138705 0.04245536
0.00941791 0.01177373 0.03749990
0.00946846 0.01177464 0.03748432
0.00951901 0.01177555 0.03746873
0.00956960 0.01177692 0.03744732
0.00962015 0.01177783 0.03743173
0.01066394 0.01144156 0.04154700
0.01081110 0.01144022 0.04155144
0.01086041 0.01144110 0.04153623
0.01090972 0.01144199 0.04152103
0.01095893 0.01144243 0.04151139
0.01100824 0.01144332 0.04149619
0.01105745 0.01144376 0.04148655
0.01120558 0.01144731 0.04142982
0.01125488 0.01144819 0.04141460
0.01130409 0.01144863 0.04140498
0.01135350 0.01144997 0.04138421
0.01140281 0.01145085 0.04136899
0.01273580 0.01147968 0.04089713
0.01352623 0.01149699 0.04061465
0.01377291 0.01150142 0.04053859
0.01382225 0.01150231 0.04052338
0.01387159 0.01150319 0.04050817
0.01423497 0.01155062 0.03988503
0.01448337 0.01155731 0.03978056
0.01548863 0.01160487 0.03910205
0.01558733 0.01160575 0.03908281
0.01563691 0.01160664 0.03906752
0.01593641 0.01161560 0.03893040
0.01603585 0.01161784 0.03889413
0.01608596 0.01161963 0.03886749
0.01613633 0.01162188 0.03883517
0.01618697 0.01162459 0.03879714
0.01623762 0.01162729 0.03875913
0.01628750 0.01162863 0.03873815
0.01633685 0.01162907 0.03872852
0.01638648 0.01162997 0.03871323
0.01691069 0.01168436 0.03798954
0.01696046 0.01168525 0.03797419
0.01700996 0.01168569 0.03796458
0.01705972 0.01168659 0.03794923
0.01710978 0.01168794 0.03792815
0.01715956 0.01168883 0.03791282
0.01720963 0.01169018 0.03789175
0.01725940 0.01169107 0.03787640
0.01730917 0.01169197 0.03786105
0.01735895 0.01169286 0.03784570
0.01740872 0.01169376 0.03783035
0.01745850 0.01169465 0.03781500
0.01750857 0.01169601 0.03779393
0.01755834 0.01169690 0.03777859
0.01760812 0.01169779 0.03776324
0.01765820 0.01169915 0.03774215
0.01770859 0.01170095 0.03771535
0.01775960 0.01170368 0.03767705
0.01833594 0.01175386 0.03700155
0.01838620 0.01175522 0.03698038
0.01843679 0.01175704 0.03695343
0.01848639 0.01175747 0.03694382
0.01853598 0.01175791 0.03693420
0.01858690 0.01176019 0.03690147
0.01863752 0.01176201 0.03687452
0.01868812 0.01176382 0.03684758
0.01873806 0.01176472 0.03683217
-0.00273381 0.01160059 0.04001346
-0.00268225 0.01160058 0.04000935
-0.00263036 0.01160010 0.04001102
-0.00257847 0.01159963 0.04001269
-0.00083950 0.01144679 0.04178555
-0.00078871 0.01144679 0.04178138
-0.00073794 0.01144679 0.04177719
0.00307488 0.01137971 0.04230240
0.00312538 0.01137838 0.04231499
0.00317499 0.01137972 0.04229407
0.00322489 0.01138016 0.04228431
0.00327493 0.01138017 0.04228015
0.00337429 0.01138240 0.04224390
0.00342389 0.01138374 0.04222295
0.00691407 0.01133859 0.04249988
0.00701285 0.01133993 0.04247497
0.00711165 0.01134082 0.04245561
0.00745753 0.01133908 0.04244877
0.00750695 0.01133687 0.04247230
0.00760565 0.01133776 0.04245296
0.00765498 0.01133865 0.04243776
0.00775368 0.01133733 0.04244608
0.00780301 0.01133645 0.04245301
0.00785233 0.01133558 0.04245993
0.00824674 0.01133958 0.04237705
0.00829604 0.01134046 0.04236186
0.00839463 0.01134223 0.04233146
0.00844395 0.01134356 0.04231073
0.00941774 0.01172143 0.03749029
0.00946824 0.01172187 0.03748053
0.00951884 0.01172325 0.03745912
0.00956938 0.01172416 0.03744353
0.01081089 0.01138875 0.04154775
0.01086011 0.01138919 0.04153810
0.01090941 0.01139007 0.04152291
0.01095862 0.01139052 0.04151326
0.01100793 0.01139140 0.04149806
0.01120526 0.01139539 0.04143168
0.01125456 0.01139628 0.04141648
0.01273544 0.01142774 0.04089901
0.01377270 0.01144992 0.04053490
0.01548865 0.01155355 0.03909267
0.01558735 0.01155443 0.03907344
0.01563693 0.01155533 0.03905815
0.01588610 0.01156204 0.03895333
0.01593570 0.01156293 0.03893805
0.01598554 0.01156427 0.03891708
0.01608549 0.01156740 0.03886946
0.01613561 0.01156920 0.03884281
0.01618650 0.01157234 0.03879912
0.01628728 0.01157684 0.03873444
0.01633664 0.01157728 0.03872481
0.01691020 0.01163195 0.03799154
0.01695996 0.01163284 0.03797619
0.01700946 0.01163328 0.03796658
0.01705922 0.01163417 0.03795125
0.01710928 0.01163552 0.03793016
0.01715905 0.01163642 0.03791481
0.01720911 0.01163777 0.03789374
0.01725889 0.01163866 0.03787839
0.01730866 0.01163955 0.03786305
0.01735873 0.01164090 0.03784198
0.01740820 0.01164134 0.03783235
0.01745798 0.01164224 0.03781700
0.01750806 0.01164359 0.03779593
0.01755813 0.01164494 0.03777486
0.01760761 0.01164538 0.03776525
0.01765768 0.01164673 0.03774416
0.01838598 0.01170310 0.03697665
0.01843624 0.01170446 0.03695548
0.01848584 0.01170490 0.03694585
0.01853576 0.01170579 0.03693046
0.01858603 0.01170715 0.03690930
0.01868757 0.01171124 0.03684962
-0.00273403 0.01154747 0.04000965
-0.00268247 0.01154746 0.04000553
-0.00263023 0.01154653 0.04001300
-0.00257869 0.01154652 0.04000887
-0.00252749 0.01154697 0.03999898
-0.00083999 0.01139480 0.04177612
-0.00078892 0.01139435 0.04177763
-0.00073787 0.01139390 0.04177910
-0.00058478 0.01139255 0.04178357
0.00307466 0.01132777 0.04229867
0.00312517 0.01132644 0.04231127
0.00317478 0.01132778 0.04229034
0.00322467 0.01132823 0.04228058
0.00327471 0.01132823 0.04227643
0.00432761 0.01131457 0.04236205
0.00437780 0.01131324 0.04237460
0.00706207 0.01128839 0.04246713
0.00711144 0.01128927 0.04245192
0.00721019 0.01129105 0.04242146
0.00725962 0.01129062 0.04242286
0.00745726 0.01128932 0.04242294
0.00750663 0.01128933 0.04241879
0.00755602 0.01128846 0.04242572
0.00760532 0.01129154 0.04238281
0.00765471 0.01129023 0.04239529
0.00770409 0.01128804 0.04241885
0.00780278 0.01128717 0.04242165
0.00785211 0.01128542 0.04243964
0.00790144 0.01128323 0.04246318
0.00839442 0.01129077 0.04232778
0.00844372 0.01129166 0.04231258
0.00951857 0.01167002 0.03746116
0.01066351 0.01133858 0.04153961
0.01071275 0.01133903 0.04152997
0.01076198 0.01133947 0.04152033
0.01081067 0.01133727 0.04154405
0.01085998 0.01133816 0.04152885
0.01090929 0.01133904 0.04151365
0.01095850 0.01133949 0.04150401
0.01125446 0.01134524 0.04140723
0.01367221 0.01139265 0.04061197
0.01588589 0.01151026 0.03894962
0.01593523 0.01151071 0.03894000
0.01598508 0.01151205 0.03891905
0.01608527 0.01151563 0.03886575
0.01613539 0.01151742 0.03883910
0.01618654 0.01152101 0.03878972
0.01623719 0.01152370 0.03875169
0.01628733 0.01152549 0.03872503
0.01633669 0.01152593 0.03871542
0.01638605 0.01152637 0.03870580
0.01695947 0.01158043 0.03797820
0.01700895 0.01158087 0.03796858
0.01705872 0.01158176 0.03795323
0.01710878 0.01158311 0.03793217
0.01715855 0.01158401 0.03791682
0.01720832 0.01158490 0.03790148
0.01725838 0.01158625 0.03788039
0.01730815 0.01158714 0.03786506
0.01735792 0.01158804 0.03784971
0.01740770 0.01158893 0.03783436
0.01745746 0.01158983 0.03781901
0.01750754 0.01159117 0.03779793
0.01755762 0.01159252 0.03777686
0.01760709 0.01159296 0.03776725
0.01765686 0.01159386 0.03775190
0.01796650 0.01161511 0.03745887
0.01833585 0.01165009 0.03698830
0.01838610 0.01165144 0.03696713
0.01843669 0.01165325 0.03694019
0.01848629 0.01165369 0.03693056
0.01853588 0.01165413 0.03692095
-0.00273425 0.01149435 0.04000583
-0.00268269 0.01149435 0.04000172
-0.00263045 0.01149342 0.04000919
-0.00257858 0.01149295 0.04001085
-0.00252771 0.01149387 0.03999518
-0.00237542 0.01149707 0.03994232
-0.00089155 0.01134326 0.04176521
-0.00084021 0.01134236 0.04177237
-0.00078914 0.01134191 0.04177386
-0.00058473 0.01133968 0.04178546
-0.00053292 0.01133789 0.04180391
-0.00048271 0.01133879 0.04178843
0.00312481 0.01127494 0.04230195
0.00317441 0.01127628 0.04228103
0.00322446 0.01127629 0.04227686
0.00327436 0.01127674 0.04226711
0.00427743 0.01126318 0.04235692
0.00432729 0.01126319 0.04235275
0.00437759 0.01126143 0.04237089
0.00507573 0.01125714 0.04236840
0.00512557 0.01125671 0.04236981
0.00527474 0.01125674 0.04235734
0.00711123 0.01123773 0.04244822
0.00750642 0.01123781 0.04241510
0.00765451 0.01123784 0.04240267
0.00770389 0.01123610 0.04242069
0.00780257 0.01123480 0.04242903
0.00785191 0.01123306 0.04244702
0.00839418 0.01123843 0.04233515
0.00844349 0.01123975 0.04231443
0.01066321 0.01128665 0.04154149
0.01071245 0.01128710 0.04153185
0.01076168 0.01128755 0.04152219
0.01081055 0.01128623 0.04153480
0.01085977 0.01128668 0.04152516
0.01090917 0.01128801 0.04150440
0.01095839 0.01128845 0.04149476
0.01100760 0.01128890 0.04148512
0.01125424 0.01129377 0.04140353
0.01382088 0.01134603 0.04053468
0.01387022 0.01134692 0.04051946
0.01588542 0.01145804 0.03895158
0.01593477 0.01145849 0.03894196
0.01598461 0.01145983 0.03892100
0.01613543 0.01146608 0.03882971
0.01618658 0.01146966 0.03878032
0.01623698 0.01147190 0.03874798
0.01628711 0.01147369 0.03872131
0.01633647 0.01147413 0.03871170
0.01638583 0.01147457 0.03870209
0.01643572 0.01147591 0.03868110
0.01700874 0.01152891 0.03796485
0.01705851 0.01152981 0.03794950
0.01710827 0.01153070 0.03793415
0.01715805 0.01153160 0.03791881
0.01720811 0.01153294 0.03789775
0.01725817 0.01153429 0.03787667
0.01730794 0.01153518 0.03786133
0.01735771 0.01153608 0.03784598
0.01740749 0.01153697 0.03783064
0.01745725 0.01153787 0.03781529
0.01750733 0.01153922 0.03779420
0.01755710 0.01154011 0.03777885
0.01760657 0.01154055 0.03776926
0.01765634 0.01154145 0.03775391
0.01791645 0.01156220 0.03747050
0.01796660 0.01156355 0.03744940
0.01801674 0.01156490 0.03742827
0.01811736 0.01156805 0.03738029
0.01848739 0.01160339 0.03690372
0.01853667 0.01160338 0.03689988
0.02120104 0.01200186 0.03164846
0.02698761 0.01321086 0.01590241
-0.00268325 0.01144169 0.03999212
-0.00263102 0.01144077 0.03999959
-0.00257913 0.01144031 0.04000126
-0.00232445 0.01144442 0.03992863
-0.00089177 0.01129081 0.04176146
-0.00084070 0.01129036 0.04176295
-0.00078936 0.01128948 0.04177010
-0.00073831 0.01128903 0.04177159
-0.00058441 0.01128637 0.04179300
-0.00053287 0.01128503 0.04180580
-0.00048293 0.01128638 0.04178467
-0.00043220 0.01128639 0.04178050
-0.00038227 0.01128774 0.04175937
-0.00033181 0.01128819 0.04174955
-0.00028161 0.01128910 0.04173407
-0.00023116 0.01128955 0.04172423
-0.00008057 0.01129226 0.04167780
-0.00003037 0.01129316 0.04166234
0.00001983 0.01129406 0.04164685
0.00007027 0.01129452 0.04163703
0.00312429 0.01122389 0.04228705
0.00317405 0.01122479 0.04227172
0.00322410 0.01122480 0.04226756
0.00432730 0.01121050 0.04236019
0.00477674 0.01120620 0.04237847
0.00482662 0.01120578 0.04237989
0.00487639 0.01120579 0.04237573
0.00507534 0.01120627 0.04235354
0.00512509 0.01120629 0.04234940
0.00517474 0.01120674 0.04233967
0.00522439 0.01120719 0.04232997
0.00527420 0.01120676 0.04233138
0.00691355 0.01118221 0.04251094
0.00745690 0.01118410 0.04244323
0.00750624 0.01118499 0.04242802
0.00765428 0.01118765 0.04238237
0.00770367 0.01118460 0.04241700
0.00780236 0.01118376 0.04241979
0.00785169 0.01118246 0.04243226
0.00824609 0.01118475 0.04237153
0.00829537 0.01118520 0.04236187
0.00839397 0.01118697 0.04233147
0.00844327 0.01118829 0.04231073
0.00849255 0.01118874 0.04230107
0.01066300 0.01123516 0.04153779
0.01071224 0.01123561 0.04152815
0.01076138 0.01123562 0.04152407
0.01081034 0.01123476 0.04153112
0.01085956 0.01123521 0.04152147
0.01090896 0.01123653 0.04150070
0.01095827 0.01123742 0.04148550
0.01100749 0.01123787 0.04147586
0.01125403 0.01124229 0.04139984
0.01322492 0.01127379 0.04084197
0.01327388 0.01127380 0.04083793
0.01362229 0.01128835 0.04062538
0.01367143 0.01128879 0.04061575
0.01588323 0.01140271 0.03899324
0.01593306 0.01140405 0.03897229
0.01598314 0.01140583 0.03894566
0.01613496 0.01141385 0.03883167
0.01618611 0.01141742 0.03878228
0.01623650 0.01141966 0.03874995
0.01628664 0.01142144 0.03872329
0.01633626 0.01142233 0.03870799
0.01638562 0.01142278 0.03869838
0.01643524 0.01142367 0.03868307
0.01648512 0.01142501 0.03866209
0.01653474 0.01142590 0.03864679
0.01700824 0.01147651 0.03796685
0.01705801 0.01147741 0.03795151
0.01710778 0.01147830 0.03793617
0.01715754 0.01147919 0.03792082
0.01720760 0.01148054 0.03789975
0.01725766 0.01148188 0.03787868
0.01730743 0.01148278 0.03786333
0.01735720 0.01148367 0.03784800
0.01740697 0.01148457 0.03783265
0.01745674 0.01148546 0.03781730
0.01750681 0.01148680 0.03779621
0.01755658 0.01148770 0.03778087
0.01760605 0.01148814 0.03777127
0.01765582 0.01148904 0.03775592
0.01791656 0.01151064 0.03746103
0.01796670 0.01151199 0.03743991
0.01801716 0.01151378 0.03741305
0.01806731 0.01151513 0.03739193
0.01811715 0.01151603 0.03737657
0.01848718 0.01155126 0.03689998
0.02698738 0.01315344 0.01589830
-0.00268380 0.01138903 0.03998253
-0.00263123 0.01138766 0.03999579
-0.00257935 0.01138720 0.03999746
-0.00232466 0.01139132 0.03992482
-0.00089227 0.01123880 0.04175204
-0.00084119 0.01123837 0.04175352
-0.00078958 0.01123704 0.04176635
-0.00073880 0.01123705 0.04176216
-0.00058490 0.01123440 0.04178360
-0.00053335 0.01123307 0.04179639
-0.00048315 0.01123398 0.04178092
-0.00043269 0.01123443 0.04177108
-0.00038248 0.01123533 0.04175562
-0.00033202 0.01123579 0.04174580
-0.00028182 0.01123669 0.04173031
-0.00023137 0.01123715 0.04172048
-0.00018118 0.01123805 0.04170500
-0.00013098 0.01123895 0.04168953
-0.00008078 0.01123986 0.04167405
-0.00003059 0.01124076 0.04165858
0.00001961 0.01124166 0.04164310
0.00007006 0.01124212 0.04163328
0.00312408 0.01117195 0.04228333
0.00317369 0.01117328 0.04226241
0.00322374 0.01117330 0.04225825
0.00432708 0.01115868 0.04235648
0.00467734 0.01115265 0.04240534
0.00472693 0.01115354 0.04239005
0.00477653 0.01115443 0.04237476
0.00482621 0.01115489 0.04236504
0.00487599 0.01115490 0.04236089
0.00492594 0.01115404 0.04236786
0.00502529 0.01115495 0.04234843
0.00512470 0.01115542 0.04233456
0.00517436 0.01115587 0.04232484
0.00527366 0.01115678 0.04230540
0.00745672 0.01113128 0.04245614
0.00765406 0.01113614 0.04237868
0.00770346 0.01113311 0.04241331
0.00780215 0.01113227 0.04241611
0.00785147 0.01113185 0.04241750
0.00790079 0.01113056 0.04242997
0.01080995 0.01118241 0.04153854
0.01090875 0.01118505 0.04149701
0.01164714 0.01119354 0.04133022
0.01194090 0.01119187 0.04132807
0.01228607 0.01119894 0.04121062
0.01322454 0.01122189 0.04084386
0.01327367 0.01122234 0.04083423
0.01352343 0.01123509 0.04065210
0.01357117 0.01123203 0.04068719
0.01362136 0.01123511 0.04064403
0.01367068 0.01123599 0.04062884
0.01372072 0.01123863 0.04059127
0.01377040 0.01124039 0.04056488
0.01381973 0.01124128 0.04054967
0.01386905 0.01124217 0.04053447
0.01391837 0.01124305 0.04051925
0.01396789 0.01124438 0.04049845
0.01588227 0.01134962 0.03900656
0.01593234 0.01135140 0.03897992
0.01603352 0.01135674 0.03890397
0.01618538 0.01136474 0.03878994
0.01623603 0.01136741 0.03875192
0.01628616 0.01136919 0.03872526
0.01633578 0.01137009 0.03870995
0.01638513 0.01137053 0.03870033
0.01643475 0.01137143 0.03868504
0.01648464 0.01137276 0.03866406
0.01653425 0.01137365 0.03864875
0.01700746 0.01142366 0.03797457
0.01705722 0.01142456 0.03795923
0.01710727 0.01142590 0.03793816
0.01715704 0.01142679 0.03792281
0.01720680 0.01142769 0.03790747
0.01725686 0.01142903 0.03788641
0.01730663 0.01142992 0.03787106
0.01735669 0.01143127 0.03784998
0.01740645 0.01143216 0.03783464
0.01745623 0.01143306 0.03781930
0.01750630 0.01143440 0.03779823
0.01755607 0.01143529 0.03778288
0.01760553 0.01143574 0.03777327
0.01765561 0.01143708 0.03775220
0.01791665 0.01145907 0.03745155
0.01796711 0.01146086 0.03742468
0.01801726 0.01146221 0.03740357
0.01806709 0.01146311 0.03738821
0.01811693 0.01146400 0.03737283
0.01816612 0.01146400 0.03736898
0.02398276 0.01306261 0.01655844
0.02403840 0.01306416 0.01653439
0.02693147 0.01309447 0.01591823
-0.00263145 0.01133454 0.03999197
-0.00089248 0.01118635 0.04174829
-0.00084113 0.01118547 0.04175542
-0.00078979 0.01118460 0.04176258
-0.00073874 0.01118417 0.04176407
-0.00063640 0.01118286 0.04177269
-0.00058511 0.01118199 0.04177985
-0.00053384 0.01118111 0.04178698
-0.00048363 0.01118201 0.04177150
-0.00043290 0.01118203 0.04176733
-0.00038296 0.01118337 0.04174620
-0.00033224 0.01118339 0.04174203
-0.00028204 0.01118429 0.04172656
-0.00023159 0.01118475 0.04171672
-0.00018139 0.01118565 0.04170124
-0.00013119 0.01118655 0.04168577
-0.00008100 0.01118745 0.04167029
-0.00003081 0.01118836 0.04165481
0.00001939 0.01118926 0.04163934
0.00006984 0.01118972 0.04162952
0.00012004 0.01119062 0.04161404
0.00027086 0.01119288 0.04157327
0.00032106 0.01119378 0.04155780
0.00312401 0.01111957 0.04228520
0.00317362 0.01112090 0.04226427
0.00467713 0.01110088 0.04240163
0.00472682 0.01110134 0.04239191
0.00477631 0.01110267 0.04237105
0.00482610 0.01110268 0.04236689
0.00487578 0.01110314 0.04235718
0.00492564 0.01110272 0.04235858
0.00497531 0.01110318 0.04234886
0.00502498 0.01110363 0.04233915
0.00512439 0.01110411 0.04232527
0.00517397 0.01110500 0.04230998
0.00522363 0.01110545 0.04230027
0.00527328 0.01110590 0.04229055
0.00532293 0.01110636 0.04228085
0.00720940 0.01108358 0.04242329
0.00765382 0.01108593 0.04235837
0.00770324 0.01108248 0.04239854
0.00780193 0.01108078 0.04241242
0.00785126 0.01108037 0.04241382
0.00790058 0.01107909 0.04242627
0.01080973 0.01113093 0.04153486
0.01159797 0.01114250 0.04132502
0.01164646 0.01114034 0.04134879
0.01184215 0.01113867 0.04135478
0.01189118 0.01113869 0.04135071
0.01194069 0.01114044 0.04132439
0.01199009 0.01114176 0.04130363
0.01203949 0.01114308 0.04128289
0.01208863 0.01114353 0.04127325
0.01213764 0.01114354 0.04126920
0.01218717 0.01114530 0.04124287
0.01223658 0.01114662 0.04122213
0.01228558 0.01114664 0.04121806
0.01233485 0.01114752 0.04120286
0.01238426 0.01114884 0.04118210
0.01243353 0.01114973 0.04116692
0.01248265 0.01115018 0.04115729
0.01253192 0.01115106 0.04114209
0.01258119 0.01115195 0.04112691
0.01263032 0.01115240 0.04111730
0.01267973 0.01115372 0.04109652
0.01282785 0.01115725 0.04103982
0.01312445 0.01116517 0.04091521
0.01317389 0.01116649 0.04089442
0.01322384 0.01116912 0.04085691
0.01327296 0.01116957 0.04084729
0.01332309 0.01117264 0.04080419
0.01337272 0.01117440 0.04077782
0.01352234 0.01118142 0.04067634
0.01366993 0.01118320 0.04064192
0.01371978 0.01118540 0.04060994
0.01376928 0.01118672 0.04058914
0.01381896 0.01118848 0.04056275
0.01386829 0.01118937 0.04054755
0.01391779 0.01119069 0.04052675
0.01396711 0.01119158 0.04051153
0.01593163 0.01129876 0.03898756
0.01603255 0.01130364 0.03891727
0.01623529 0.01131473 0.03875956
0.01628595 0.01131740 0.03872153
0.01633557 0.01131829 0.03870624
0.01638492 0.01131874 0.03869662
0.01643454 0.01131963 0.03868133
0.01648442 0.01132097 0.03866035
0.01653404 0.01132186 0.03864504
0.01700667 0.01137082 0.03798230
0.01705644 0.01137171 0.03796695
0.01710648 0.01137306 0.03794588
0.01715625 0.01137395 0.03793053
0.01720600 0.01137484 0.03791520
0.01725606 0.01137619 0.03789413
0.01730612 0.01137753 0.03787306
0.01735588 0.01137842 0.03785771
0.01740565 0.01137931 0.03784236
0.01745571 0.01138066 0.03782131
0.01750578 0.01138200 0.03780022
0.01755555 0.01138289 0.03778487
0.01760501 0.01138334 0.03777526
0.01765508 0.01138468 0.03775419
0.01791643 0.01140705 0.03744781
0.01796658 0.01140839 0.03742671
0.01801705 0.01141019 0.03739983
0.01806720 0.01141153 0.03737873
0.01811703 0.01141242 0.03736337
0.02403872 0.01300720 0.01652317
0.02520111 0.01283639 0.01861380
0.02698756 0.01303914 0.01588297
-0.00089242 0.01113346 0.04175018
-0.00084080 0.01113215 0.04176299
-0.00078947 0.01113128 0.04177013
-0.00073869 0.01113129 0.04176596
-0.00063635 0.01113000 0.04177459
-0.00058533 0.01112957 0.04177608
-0.00053405 0.01112870 0.04178321
-0.00048385 0.01112961 0.04176775
-0.00043338 0.01113006 0.04175791
-0.00038318 0.01113097 0.04174244
-0.00033272 0.01113143 0.04173262
-0.00023181 0.01113235 0.04171297
-0.00018161 0.01113325 0.04169749
-0.00013141 0.01113415 0.04168200
-0.00008122 0.01113505 0.04166654
-0.00003103 0.01113595 0.04165106
0.00001917 0.01113686 0.04163557
0.00006962 0.01113732 0.04162577
0.00011982 0.01113822 0.04161029
0.00017001 0.01113912 0.04159482
0.00022021 0.01114002 0.04157934
0.00027040 0.01114092 0.04156385
0.00032084 0.01114138 0.04155405
0.00037103 0.01114229 0.04153857
0.00042099 0.01114363 0.04151744
0.00317385 0.01106765 0.04227731
0.00422681 0.01105545 0.04235178
0.00427668 0.01105547 0.04234762
0.00432665 0.01105505 0.04234904
0.00437695 0.01105333 0.04236718
0.00467671 0.01104999 0.04238679
0.00472641 0.01105044 0.04237707
0.00477600 0.01105133 0.04236177
0.00482569 0.01105179 0.04235205
0.00487547 0.01105181 0.04234789
0.00492533 0.01105140 0.04234929
0.00497491 0.01105229 0.04233401
0.00502468 0.01105231 0.04232986
0.00507444 0.01105233 0.04232572
0.00512418 0.01105235 0.04232156
0.00517376 0.01105325 0.04230627
0.00522333 0.01105414 0.04229099
0.00527299 0.01105459 0.04228127
0.00532264 0.01105505 0.04227157
0.00725856 0.01103293 0.04240438
0.00730798 0.01103252 0.04240578
0.00735738 0.01103254 0.04240164
0.00740677 0.01103257 0.04239750
0.00750549 0.01103434 0.04236707
0.00755486 0.01103436 0.04236293
0.00770299 0.01103313 0.04236716
0.00785104 0.01102932 0.04240458
0.00790036 0.01102848 0.04241152
0.00794967 0.01102850 0.04240738
0.01159753 0.01109017 0.04133247
0.01164602 0.01108802 0.04135624
0.01174364 0.01108633 0.04137035
0.01179303 0.01108765 0.04134959
0.01184194 0.01108724 0.04135108
0.01189084 0.01108682 0.04135258
0.01194036 0.01108857 0.04132627
0.01198962 0.01108946 0.04131109
0.01203915 0.01109121 0.04128475
0.01208828 0.01109166 0.04127513
0.01213729 0.01109168 0.04127108
0.01218683 0.01109343 0.04124475
0.01223623 0.01109475 0.04122399
0.01228523 0.01109477 0.04121993
0.01233436 0.01109522 0.04121031
0.01238377 0.01109654 0.04118955
0.01243317 0.01109786 0.04116879
0.01248216 0.01109788 0.04116474
0.01253157 0.01109920 0.04114398
0.01258084 0.01110008 0.04112880
0.01262996 0.01110053 0.04111917
0.01267938 0.01110185 0.04109842
0.01272894 0.01110361 0.04107209
0.01277836 0.01110492 0.04105131
0.01282748 0.01110538 0.04104170
0.01287691 0.01110670 0.04102093
0.01317319 0.01111374 0.04090747
0.01322395 0.01111854 0.04084206
0.01327324 0.01111942 0.04082686
0.01332354 0.01112292 0.04077816
0.01337318 0.01112467 0.04075179
0.01342265 0.01112599 0.04073100
0.01347299 0.01112949 0.04068227
0.01352248 0.01113081 0.04066148
0.01357127 0.01113039 0.04066303
0.01362076 0.01113171 0.04064225
0.01367007 0.01113260 0.04062703
0.01371993 0.01113479 0.04059507
0.01376943 0.01113611 0.04057427
0.01381875 0.01113699 0.04055907
0.01386807 0.01113788 0.04054385
0.01391739 0.01113877 0.04052866
0.01396690 0.01114009 0.04050785
0.01401660 0.01114185 0.04048145
0.01406592 0.01114273 0.04046625
0.01411525 0.01114362 0.04045103
0.01416476 0.01114494 0.04043023
0.01426401 0.01114802 0.04038301
0.01431334 0.01114891 0.04036780
0.01568281 0.01124123 0.03907727
0.01588110 0.01124479 0.03901614
0.01593091 0.01124613 0.03899518
0.01598073 0.01124746 0.03897423
0.01603107 0.01124967 0.03894192
0.01608140 0.01125189 0.03890961
0.01623404 0.01126118 0.03877859
0.01628521 0.01126472 0.03872919
0.01633535 0.01126649 0.03870252
0.01638445 0.01126650 0.03869860
0.01643432 0.01126784 0.03867760
0.01648421 0.01126917 0.03865662
0.01653355 0.01126962 0.03864701
0.01705565 0.01131888 0.03797469
0.01710569 0.01132022 0.03795360
0.01715545 0.01132111 0.03793827
0.01720521 0.01132201 0.03792292
0.01725526 0.01132335 0.03790186
0.01730531 0.01132469 0.03788078
0.01735537 0.01132602 0.03785972
0.01740514 0.01132692 0.03784437
0.01745520 0.01132826 0.03782330
0.01750527 0.01132960 0.03780223
0.01755533 0.01133094 0.03778115
0.01760480 0.01133139 0.03777154
0.01765457 0.01133228 0.03775620
0.01791621 0.01135503 0.03744408
0.01796637 0.01135637 0.03742298
0.01801683 0.01135816 0.03739610
0.01806666 0.01135906 0.03738074
0.01811650 0.01135995 0.03736538
0.01816601 0.01136040 0.03735577
0.02520206 0.01278067 0.01859589
0.02682163 0.01297820 0.01593682
0.02687533 0.01297809 0.01593405
0.02693099 0.01297963 0.01591000
0.02698666 0.01298117 0.01588595
-0.00232565 0.01123245 0.03990760
-0.00094316 0.01108055 0.04175624
-0.00089209 0.01108013 0.04175773
-0.00084046 0.01107882 0.04177055
-0.00073863 0.01107842 0.04176785
-0.00068705 0.01107712 0.04178065
-0.00063630 0.01107714 0.04177649
-0.00058528 0.01107672 0.04177798
-0.00053427 0.01107630 0.04177946
-0.00048407 0.01107720 0.04176398
-0.00043360 0.01107766 0.04175416
-0.00038340 0.01107856 0.04173869
-0.00033294 0.01107902 0.04172885
-0.00028274 0.01107992 0.04171339
-0.00018183 0.01108085 0.04169373
-0.00013163 0.01108175 0.04167825
-0.00008144 0.01108265 0.04166278
-0.00003124 0.01108355 0.04164730
0.00001896 0.01108446 0.04163182
0.00006916 0.01108536 0.04161635
0.00011935 0.01108626 0.04160087
0.00016955 0.01108716 0.04158539
0.00021975 0.01108806 0.04156992
0.00027019 0.01108852 0.04156010
0.00032038 0.01108943 0.04154463
0.00037058 0.01109033 0.04152915
0.00042077 0.01109123 0.04151367
0.00427613 0.01100495 0.04232720
0.00432611 0.01100454 0.04232861
0.00437652 0.01100240 0.04235232
0.00467640 0.01099865 0.04237750
0.00472619 0.01099867 0.04237334
0.00477579 0.01099956 0.04235806
0.00482548 0.01100002 0.04234834
0.00487516 0.01100048 0.04233861
0.00492503 0.01100007 0.04234004
0.00497461 0.01100096 0.04232475
0.00502437 0.01100099 0.04232058
0.00507413 0.01100101 0.04231644
0.00512380 0.01100147 0.04230672
0.00517346 0.01100193 0.04229701
0.00522303 0.01100282 0.04228172
0.00532234 0.01100373 0.04226229
0.00537191 0.01100462 0.04224700
0.00542156 0.01100508 0.04223728
0.00686307 0.01097860 0.04246706
0.00691254 0.01097820 0.04246846
0.00735706 0.01098360 0.04236470
0.00740648 0.01098319 0.04236612
0.00745589 0.01098279 0.04236752
0.00750523 0.01098411 0.04234675
0.00755463 0.01098370 0.04234816
0.00760400 0.01098373 0.04234402
0.00770278 0.01098163 0.04236346
0.00785083 0.01097869 0.04238982
0.01164569 0.01103614 0.04135810
0.01174331 0.01103446 0.04137222
0.01179258 0.01103535 0.04135703
0.01184161 0.01103537 0.04135296
0.01189063 0.01103539 0.04134889
0.01194002 0.01103671 0.04132815
0.01198941 0.01103803 0.04130739
0.01203880 0.01103934 0.04128663
0.01208794 0.01103980 0.04127701
0.01213722 0.01104068 0.04126182
0.01218661 0.01104200 0.04124105
0.01223602 0.01104332 0.04122031
0.01228502 0.01104334 0.04121625
0.01233415 0.01104379 0.04120663
0.01238355 0.01104511 0.04118587
0.01243296 0.01104643 0.04116510
0.01248195 0.01104645 0.04116106
0.01253136 0.01104777 0.04114030
0.01258063 0.01104865 0.04112510
0.01262990 0.01104954 0.04110992
0.01267916 0.01105042 0.04109472
0.01272858 0.01105174 0.04107396
0.01277815 0.01105349 0.04104763
0.01282727 0.01105394 0.04103801
0.01287670 0.01105526 0.04101725
0.01292628 0.01105701 0.04099090
0.01297555 0.01105789 0.04097572
0.01302467 0.01105835 0.04096609
0.01312370 0.01106142 0.04091898
0.01322358 0.01106665 0.04084395
0.01327337 0.01106883 0.04081202
0.01337297 0.01107320 0.04074810
0.01342244 0.01107452 0.04072732
0.01347244 0.01107714 0.04068975
0.01352209 0.01107889 0.04066338
0.01357123 0.01107934 0.04065375
0.01362055 0.01108023 0.04063855
0.01367004 0.01108155 0.04061776
0.01371972 0.01108330 0.04059137
0.01376922 0.01108462 0.04057057
0.01381835 0.01108508 0.04056096
0.01386767 0.01108596 0.04054575
0.01391718 0.01108728 0.04052496
0.01396649 0.01108817 0.04050975
0.01401619 0.01108992 0.04048336
0.01406551 0.01109081 0.04046814
0.01411484 0.01109169 0.04045294
0.01416416 0.01109258 0.04043773
0.01421368 0.01109390 0.04041693
0.01426340 0.01109565 0.04039054
0.01431292 0.01109697 0.04036970
0.01568187 0.01118817 0.03909056
0.01573168 0.01118950 0.03906961
0.01578150 0.01119083 0.03904867
0.01583106 0.01119172 0.03903338
0.01588038 0.01119217 0.03902376
0.01593020 0.01119350 0.03900282
0.01598027 0.01119527 0.03897618
0.01603035 0.01119704 0.03894956
0.01607992 0.01119793 0.03893428
0.01613052 0.01120058 0.03889629
0.01633409 0.01121294 0.03872155
0.01638265 0.01121207 0.03872898
0.01643252 0.01121340 0.03870800
0.01648266 0.01121517 0.03868134
0.01710491 0.01126739 0.03796133
0.01715466 0.01126828 0.03794599
0.01720442 0.01126918 0.03793065
0.01725447 0.01127051 0.03790958
0.01730481 0.01127229 0.03788279
0.01735486 0.01127363 0.03786172
0.01740493 0.01127497 0.03784065
0.01745469 0.01127586 0.03782530
0.01750475 0.01127720 0.03780423
0.01755482 0.01127854 0.03778316
0.01760458 0.01127943 0.03776781
0.01765435 0.01128033 0.03775248
0.01791569 0.01130257 0.03744611
0.01796583 0.01130391 0.03742500
0.01801630 0.01130569 0.03739813
0.01806645 0.01130703 0.03737700
0.01811629 0.01130793 0.03736164
0.01816580 0.01130838 0.03735203
0.02403824 0.01289220 0.01651493
0.02520182 0.01272387 0.01859181
0.02687510 0.01292067 0.01592992
0.02693010 0.01292166 0.01591296
-0.00263211 0.01117521 0.03998055
-0.00094338 0.01102809 0.04175249
-0.00089202 0.01102724 0.04175964
-0.00084040 0.01102594 0.04177244
-0.00073857 0.01102555 0.04176976
-0.00068672 0.01102382 0.04178822
-0.00063598 0.01102384 0.04178405
-0.00058523 0.01102386 0.04177988
-0.00053422 0.01102345 0.04178137
-0.00048428 0.01102479 0.04176022
-0.00043382 0.01102525 0.04175040
-0.00038361 0.01102616 0.04173492
-0.00033315 0.01102662 0.04172510
-0.00028269 0.01102708 0.04171528
-0.00023250 0.01102798 0.04169981
-0.00018230 0.01102888 0.04168433
-0.00013185 0.01102935 0.04167449
-0.00008165 0.01103025 0.04165901
-0.00003146 0.01103115 0.04164355
0.00001874 0.01103205 0.04162806
0.00006894 0.01103296 0.04161258
0.00011913 0.01103386 0.04159711
0.00016933 0.01103476 0.04158163
0.00021953 0.01103566 0.04156616
0.00026972 0.01103657 0.04155068
0.00032017 0.01103703 0.04154086
0.00037036 0.01103793 0.04152539
0.00042032 0.01103927 0.04150425
0.00417627 0.01095264 0.04233736
0.00422615 0.01095267 0.04233320
0.00427580 0.01095356 0.04231790
0.00432578 0.01095316 0.04231931
0.00442626 0.01095019 0.04235002
0.00447631 0.01094935 0.04235700
0.00452666 0.01094722 0.04238069
0.00457657 0.01094682 0.04238211
0.00462628 0.01094728 0.04237238
0.00472588 0.01094733 0.04236408
0.00477547 0.01094822 0.04234879
0.00482516 0.01094868 0.04233906
0.00487485 0.01094914 0.04232934
0.00492462 0.01094917 0.04232518
0.00497430 0.01094963 0.04231547
0.00502406 0.01094966 0.04231130
0.00507392 0.01094926 0.04231273
0.00512358 0.01094972 0.04230301
0.00517316 0.01095061 0.04228772
0.00522282 0.01095107 0.04227801
0.00532213 0.01095198 0.04225858
0.00537170 0.01095288 0.04224329
0.00542135 0.01095334 0.04223357
0.00686278 0.01092791 0.04245229
0.00691226 0.01092751 0.04245368
0.00735681 0.01093292 0.04234992
0.00740623 0.01093252 0.04235132
0.00745563 0.01093255 0.04234719
0.00750500 0.01093343 0.04233198
0.00755441 0.01093261 0.04233891
0.00760378 0.01093306 0.04232924
0.01164536 0.01098427 0.04135998
0.01179249 0.01098434 0.04134779
0.01184151 0.01098437 0.04134370
0.01189054 0.01098439 0.04133965
0.01193993 0.01098571 0.04131889
0.01198920 0.01098659 0.04130371
0.01203859 0.01098791 0.04128294
0.01208761 0.01098794 0.04127888
0.01213700 0.01098925 0.04125813
0.01218653 0.01099100 0.04123181
0.01223581 0.01099188 0.04121661
0.01228481 0.01099191 0.04121256
0.01233394 0.01099236 0.04120293
0.01238334 0.01099368 0.04118218
0.01243275 0.01099499 0.04116142
0.01248188 0.01099545 0.04115181
0.01253129 0.01099676 0.04113103
0.01258055 0.01099765 0.04111584
0.01262968 0.01099810 0.04110622
0.01267895 0.01099899 0.04109104
0.01272837 0.01100031 0.04107027
0.01277779 0.01100162 0.04104951
0.01282706 0.01100251 0.04103433
0.01287648 0.01100382 0.04101355
0.01292591 0.01100514 0.04099278
0.01297534 0.01100646 0.04097202
0.01302446 0.01100691 0.04096240
0.01307389 0.01100823 0.04094164
0.01322254 0.01101304 0.04086816
0.01327249 0.01101565 0.04083064
0.01332278 0.01101912 0.04078194
0.01337259 0.01102130 0.04075000
0.01342206 0.01102262 0.04072921
0.01347205 0.01102523 0.04069166
0.01352171 0.01102698 0.04066527
0.01357102 0.01102787 0.04065007
0.01362034 0.01102875 0.04063486
0.01366983 0.01103007 0.04061407
0.01371950 0.01103182 0.04058768
0.01376900 0.01103314 0.04056688
0.01381814 0.01103359 0.04055727
0.01386746 0.01103448 0.04054207
0.01391696 0.01103580 0.04052126
0.01396628 0.01103668 0.04050605
0.01401579 0.01103800 0.04048526
0.01406530 0.01103932 0.04046446
0.01411462 0.01104021 0.04044925
0.01416395 0.01104109 0.04043405
0.01421347 0.01104241 0.04041323
0.01426319 0.01104416 0.04038684
0.01431252 0.01104505 0.04037163
0.01436204 0.01104637 0.04035081
0.01578104 0.01113864 0.03905061
0.01583061 0.01113953 0.03903534
0.01587992 0.01113999 0.03902572
0.01592974 0.01114132 0.03900477
0.01597956 0.01114264 0.03898382
0.01633309 0.01115983 0.03873488
0.01638190 0.01115941 0.03873664
0.01715386 0.01121546 0.03795372
0.01720362 0.01121635 0.03793837
0.01725367 0.01121769 0.03791732
0.01730401 0.01121946 0.03789052
0.01735406 0.01122080 0.03786944
0.01740412 0.01122214 0.03784838
0.01745417 0.01122347 0.03782731
0.01750424 0.01122481 0.03780624
0.01755430 0.01122615 0.03778516
0.01760406 0.01122704 0.03776981
0.01765383 0.01122793 0.03775448
0.01791611 0.01125143 0.03743088
0.01796594 0.01125233 0.03741552
0.01801672 0.01125456 0.03738290
0.01806656 0.01125545 0.03736754
0.01811639 0.01125635 0.03735217
0.02392839 0.01283326 0.01653770
0.02398347 0.01283425 0.01652071
0.02403800 0.01283469 0.01651080
0.02520277 0.01266813 0.01857390
-0.00268457 0.01112298 0.03996928
-0.00263233 0.01112210 0.03997675
-0.00089252 0.01097523 0.04175021
-0.00084062 0.01097351 0.04176867
-0.00078957 0.01097310 0.04177016
-0.00068640 0.01097052 0.04179576
-0.00063565 0.01097055 0.04179159
-0.00058518 0.01097102 0.04178177
-0.00053444 0.01097104 0.04177760
-0.00048450 0.01097238 0.04175647
-0.00043377 0.01097241 0.04175229
-0.00038383 0.01097375 0.04173116
-0.00033337 0.01097421 0.04172134
-0.00028291 0.01097468 0.04171152
-0.00023271 0.01097558 0.04169604
-0.00018252 0.01097648 0.04168057
-0.00013206 0.01097695 0.04167074
-0.00008187 0.01097785 0.04165526
-0.00003192 0.01097919 0.04163414
0.00001852 0.01097965 0.04162431
0.00006872 0.01098056 0.04160883
0.00011892 0.01098146 0.04159336
0.00016912 0.01098236 0.04157788
0.00021931 0.01098326 0.04156239
0.00026951 0.01098416 0.04154693
0.00031971 0.01098507 0.04153144
0.00036991 0.01098597 0.04151596
0.00042010 0.01098687 0.04150049
0.00332575 0.01090460 0.04234859
0.00417606 0.01090081 0.04233365
0.00422594 0.01090084 0.04232949
0.00427558 0.01090174 0.04231419
0.00432556 0.01090134 0.04231560
0.00437586 0.01089965 0.04233374
0.00442593 0.01089882 0.04234073
0.00452602 0.01089716 0.04235469
0.00457606 0.01089633 0.04236169
0.00462586 0.01089636 0.04235753
0.00472557 0.01089599 0.04235479
0.00477516 0.01089688 0.04233950
0.00482476 0.01089777 0.04232422
0.00487445 0.01089824 0.04231448
0.00492423 0.01089827 0.04231033
0.00497391 0.01089873 0.04230061
0.00502368 0.01089876 0.04229647
0.00507353 0.01089836 0.04229787
0.00512319 0.01089882 0.04228815
0.00517286 0.01089928 0.04227844
0.00522252 0.01089974 0.04226872
0.00527218 0.01090021 0.04225901
0.00537149 0.01090113 0.04223958
0.00542105 0.01090202 0.04222429
0.00547063 0.01090291 0.04220900
0.00552028 0.01090337 0.04219930
0.00556992 0.01090383 0.04218958
0.00566927 0.01090432 0.04217574
0.00571903 0.01090392 0.04217716
0.00576873 0.01090395 0.04217301
0.00586809 0.01090402 0.04216473
0.00681301 0.01087760 0.04243609
0.00686251 0.01087721 0.04243751
0.00691199 0.01087681 0.04243891
0.00696138 0.01087770 0.04242368
0.00701076 0.01087859 0.04240845
0.00706014 0.01087947 0.04239322
0.00715889 0.01088168 0.04235722
0.00720835 0.01088128 0.04235864
0.00740599 0.01088184 0.04233654
0.00750476 0.01088276 0.04231718
0.00755419 0.01088151 0.04232968
0.01179215 0.01093248 0.04134965
0.01184130 0.01093294 0.04134002
0.01189033 0.01093296 0.04133596
0.01193947 0.01093342 0.04132633
0.01198873 0.01093431 0.04131113
0.01203813 0.01093562 0.04129039
0.01208726 0.01093608 0.04128076
0.01213653 0.01093696 0.04126556
0.01218592 0.01093828 0.04124482
0.01223532 0.01093959 0.04122406
0.01228419 0.01093919 0.04122558
0.01233345 0.01094007 0.04121038
0.01238285 0.01094139 0.04118963
0.01243212 0.01094227 0.04117443
0.01248124 0.01094273 0.04116482
0.01253065 0.01094405 0.04114406
0.01257991 0.01094493 0.04112886
0.01262918 0.01094582 0.04111367
0.01267844 0.01094670 0.04109848
0.01272786 0.01094802 0.04107773
0.01277728 0.01094933 0.04105698
0.01282654 0.01095021 0.04104178
0.01287596 0.01095153 0.04102100
0.01292554 0.01095327 0.04099467
0.01297482 0.01095416 0.04097949
0.01302409 0.01095504 0.04096429
0.01307352 0.01095636 0.04094352
0.01322216 0.01096116 0.04087006
0.01327211 0.01096376 0.04083253
0.01332257 0.01096766 0.04077825
0.01337237 0.01096983 0.04074630
0.01342201 0.01097158 0.04071993
0.01347201 0.01097418 0.04068238
0.01352184 0.01097636 0.04065040
0.01357098 0.01097682 0.04064079
0.01362030 0.01097770 0.04062559
0.01366979 0.01097902 0.04060479
0.01371947 0.01098076 0.04057840
0.01376879 0.01098165 0.04056320
0.01381811 0.01098254 0.04054798
0.01386724 0.01098299 0.04053837
0.01391675 0.01098431 0.04051757
0.01396607 0.01098520 0.04050237
0.01401577 0.01098694 0.04047596
0.01406509 0.01098783 0.04046077
0.01411441 0.01098872 0.04044555
0.01416374 0.01098960 0.04043035
0.01421325 0.01099092 0.04040955
0.01426297 0.01099267 0.04038315
0.01431230 0.01099355 0.04036793
0.01436183 0.01099487 0.04034711
0.01578008 0.01108559 0.03906390
0.01582965 0.01108648 0.03904863
0.01587871 0.01108650 0.03904468
0.01592877 0.01108827 0.03901806
