ply
format ascii 1.0
element vertex 1437
property float x
property float y
property float z
end_header
0.00802370 0.00612512 0.00298890
0.00797187 0.00612410 0.00299172
0.00791978 0.00612288 0.00298879
0.00786796 0.00612186 0.00299160
0.00781615 0.00612084 0.00299440
0.00776435 0.00611982 0.00299722
0.00771307 0.00611922 0.00301149
0.00766128 0.00611821 0.00301431
0.00729325 0.00610631 0.00290224
0.00724154 0.00610529 0.00290504
0.00718936 0.00610386 0.00289641
0.00713743 0.00610264 0.00289349
0.00708575 0.00610163 0.00289631
0.00698288 0.00610001 0.00291337
0.00693122 0.00609900 0.00291620
0.00687980 0.00609819 0.00292473
0.00682815 0.00609718 0.00292754
0.00677627 0.00609596 0.00292462
0.00672418 0.00609453 0.00291599
0.00667300 0.00609393 0.00293024
0.00656931 0.00609149 0.00292443
0.00620481 0.00608109 0.00285265
0.00615349 0.00608029 0.00286117
0.00610216 0.00607948 0.00286970
0.00605084 0.00607868 0.00287820
0.00599972 0.00607808 0.00289243
0.00594841 0.00607727 0.00290096
0.00589730 0.00607668 0.00291519
0.00584599 0.00607587 0.00292371
0.00579488 0.00607527 0.00293794
0.00574357 0.00607447 0.00294647
0.00569246 0.00607387 0.00296070
0.00564116 0.00607307 0.00296921
0.00559006 0.00607247 0.00298344
0.00553876 0.00607166 0.00299196
0.00548765 0.00607106 0.00300619
0.00543655 0.00607047 0.00302042
0.00538525 0.00606966 0.00302891
0.00533415 0.00606906 0.00304314
0.00528305 0.00606846 0.00305738
0.00523194 0.00606787 0.00307161
0.00518066 0.00606706 0.00308011
0.00512921 0.00606605 0.00308292
0.00481641 0.00605485 0.00295693
0.00476520 0.00605405 0.00296544
0.00471384 0.00605304 0.00296824
0.00466231 0.00605183 0.00296533
0.00461112 0.00605103 0.00297384
0.00455994 0.00605022 0.00298233
0.00450859 0.00604921 0.00298513
0.00445741 0.00604841 0.00299363
0.00440609 0.00604740 0.00299644
0.00430359 0.00604559 0.00300772
0.00425258 0.00604500 0.00302193
0.00420141 0.00604420 0.00303042
0.00415026 0.00604339 0.00303893
0.00409938 0.00604300 0.00305884
0.00404823 0.00604220 0.00306734
0.00399722 0.00604160 0.00308155
0.00394635 0.00604121 0.00310144
0.00389533 0.00604061 0.00311565
0.00384419 0.00603981 0.00312415
0.00379318 0.00603921 0.00313836
0.00374243 0.00603903 0.00316398
0.00369116 0.00603802 0.00316676
0.00349191 0.00604342 0.00344084
0.00344059 0.00604241 0.00344361
0.00338952 0.00604181 0.00345784
0.00333832 0.00604101 0.00346632
0.00328702 0.00604000 0.00346909
0.00323548 0.00603859 0.00346041
0.00318431 0.00603778 0.00346892
0.00313337 0.00603739 0.00348884
0.00308174 0.00603577 0.00347446
0.00205734 0.00601524 0.00351830
0.00195530 0.00601384 0.00354098
0.00190432 0.00601324 0.00355516
0.00185334 0.00601265 0.00356936
0.00154896 0.00601376 0.00378622
0.00149794 0.00601316 0.00380042
0.00144687 0.00601236 0.00380889
0.00139585 0.00601176 0.00382310
0.00134484 0.00601116 0.00383730
0.00129382 0.00601057 0.00385150
0.00124280 0.00600997 0.00386570
0.00119179 0.00600937 0.00387992
0.00114077 0.00600878 0.00389412
0.00108981 0.00600838 0.00391406
0.00103879 0.00600779 0.00392826
0.00098777 0.00600719 0.00394247
0.00093681 0.00600679 0.00396241
0.00088578 0.00600620 0.00397661
0.00083477 0.00600560 0.00399083
0.00078374 0.00600500 0.00400503
0.00073273 0.00600441 0.00401923
0.00063062 0.00600280 0.00403616
0.00057953 0.00600180 0.00403889
0.00052849 0.00600100 0.00404736
0.00047750 0.00600060 0.00406730
0.00042649 0.00600001 0.00408150
0.00037551 0.00599961 0.00410144
0.00032449 0.00599902 0.00411564
0.00027351 0.00599862 0.00413559
0.00022251 0.00599823 0.00415555
0.00017150 0.00599763 0.00416975
0.00012052 0.00599744 0.00419542
0.00006952 0.00599705 0.00421537
0.00001851 0.00599666 0.00423533
-0.00003250 0.00599626 0.00425528
-0.00008350 0.00599587 0.00427523
-0.00013452 0.00599547 0.00429519
-0.00018554 0.00599508 0.00431515
-0.00023655 0.00599489 0.00434084
-0.00028757 0.00599450 0.00436081
-0.00033860 0.00599410 0.00438076
-0.00038964 0.00599351 0.00439498
-0.00044067 0.00599331 0.00442068
-0.00049171 0.00599272 0.00443490
-0.00054275 0.00599232 0.00445485
-0.00059379 0.00599193 0.00447483
-0.00064483 0.00599154 0.00449480
-0.00069589 0.00599155 0.00452629
-0.00074696 0.00599136 0.00455199
-0.00079801 0.00599096 0.00457197
-0.00084909 0.00599077 0.00459771
-0.00090017 0.00599058 0.00462344
-0.00095123 0.00598999 0.00463766
-0.00100229 0.00598939 0.00465187
-0.00105336 0.00598899 0.00467186
-0.00110442 0.00598840 0.00468607
-0.00115551 0.00598800 0.00470605
-0.00120657 0.00598740 0.00472027
-0.00125765 0.00598701 0.00474025
-0.00130874 0.00598662 0.00476024
-0.00135981 0.00598602 0.00477445
-0.00141088 0.00598542 0.00478867
-0.00146194 0.00598482 0.00480290
-0.00151307 0.00598463 0.00482865
-0.00161514 0.00598303 0.00484554
-0.00166621 0.00598243 0.00485976
-0.00171728 0.00598183 0.00487399
-0.00176835 0.00598123 0.00488821
-0.00181941 0.00598064 0.00490242
-0.00187048 0.00598004 0.00491664
-0.00192154 0.00597944 0.00493085
-0.00197261 0.00597884 0.00494508
-0.00207522 0.00597968 0.00503126
-0.00212641 0.00597949 0.00505702
-0.00217759 0.00597930 0.00508282
-0.00222878 0.00597911 0.00510859
-0.00227982 0.00597831 0.00511704
-0.00233097 0.00597791 0.00513704
-0.00253609 0.00597796 0.00526334
-0.00258726 0.00597756 0.00528336
-0.00590040 0.00599021 0.00765945
-0.00815697 0.00604502 0.01058370
-0.01643395 0.00561029 0.00333904
-0.01653248 0.00560895 0.00336106
0.01212200 0.00619638 0.00403018
0.01207010 0.00619578 0.00404464
0.01201740 0.00619474 0.00404742
0.01185973 0.00619185 0.00406158
0.01180784 0.00619125 0.00407603
0.01175439 0.00618979 0.00406714
0.01170212 0.00618897 0.00407574
0.00802463 0.00607189 0.00299001
0.00797307 0.00607108 0.00299856
0.00792097 0.00606986 0.00299563
0.00786942 0.00606905 0.00300416
0.00781761 0.00606804 0.00300698
0.00776527 0.00606661 0.00299832
0.00771400 0.00606601 0.00301260
0.00729442 0.00605337 0.00290905
0.00724296 0.00605256 0.00291759
0.00719053 0.00605093 0.00290322
0.00713860 0.00604971 0.00290032
0.00708692 0.00604870 0.00290313
0.00698381 0.00604689 0.00291447
0.00693215 0.00604588 0.00291729
0.00688096 0.00604528 0.00293155
0.00682930 0.00604427 0.00293435
0.00677789 0.00604346 0.00294289
0.00672579 0.00604204 0.00293425
0.00667416 0.00604103 0.00293705
0.00662230 0.00603981 0.00293414
0.00620553 0.00602784 0.00284803
0.00615420 0.00602704 0.00285655
0.00610287 0.00602623 0.00286508
0.00605176 0.00602564 0.00287931
0.00600045 0.00602483 0.00288783
0.00594913 0.00602403 0.00289635
0.00589802 0.00602343 0.00291058
0.00584671 0.00602263 0.00291909
0.00579561 0.00602203 0.00293332
0.00574430 0.00602123 0.00294185
0.00569319 0.00602063 0.00295608
0.00564189 0.00601983 0.00296460
0.00559079 0.00601923 0.00297882
0.00553949 0.00601842 0.00298733
0.00548839 0.00601783 0.00300156
0.00543728 0.00601723 0.00301579
0.00538618 0.00601663 0.00303002
0.00533489 0.00601583 0.00303853
0.00528379 0.00601523 0.00305276
0.00523269 0.00601463 0.00306699
0.00518159 0.00601403 0.00308122
0.00476613 0.00600109 0.00296652
0.00471459 0.00599988 0.00296363
0.00466307 0.00599867 0.00296073
0.00461189 0.00599787 0.00296922
0.00456070 0.00599707 0.00297773
0.00450936 0.00599606 0.00298052
0.00445818 0.00599526 0.00298902
0.00435568 0.00599346 0.00300032
0.00430451 0.00599266 0.00300881
0.00425335 0.00599186 0.00301732
0.00420233 0.00599126 0.00303152
0.00415103 0.00599025 0.00303432
0.00410017 0.00598986 0.00305423
0.00404902 0.00598906 0.00306273
0.00399800 0.00598846 0.00307693
0.00394714 0.00598807 0.00309683
0.00389613 0.00598747 0.00311105
0.00384512 0.00598688 0.00312525
0.00379410 0.00598628 0.00313945
0.00354415 0.00599143 0.00343916
0.00349296 0.00599063 0.00344765
0.00344163 0.00598962 0.00345042
0.00339056 0.00598902 0.00346465
0.00328807 0.00598722 0.00347592
0.00323664 0.00598601 0.00347295
0.00318570 0.00598561 0.00349291
0.00313453 0.00598481 0.00350139
0.00308301 0.00598340 0.00349271
0.00205835 0.00596253 0.00352511
0.00195638 0.00596134 0.00355351
0.00190540 0.00596074 0.00356770
0.00185449 0.00596035 0.00358762
0.00160097 0.00596161 0.00377883
0.00154995 0.00596102 0.00379303
0.00149893 0.00596042 0.00380725
0.00144785 0.00595962 0.00381571
0.00139683 0.00595902 0.00382993
0.00134581 0.00595843 0.00384413
0.00129480 0.00595783 0.00385833
0.00124378 0.00595723 0.00387254
0.00119276 0.00595663 0.00388674
0.00114175 0.00595604 0.00390095
0.00109073 0.00595544 0.00391515
0.00103976 0.00595505 0.00393510
0.00098875 0.00595445 0.00394930
0.00093773 0.00595385 0.00396350
0.00088675 0.00595346 0.00398344
0.00083573 0.00595286 0.00399764
0.00078467 0.00595206 0.00400612
0.00073365 0.00595146 0.00402032
0.00063154 0.00594986 0.00403726
0.00058045 0.00594886 0.00403997
0.00052941 0.00594806 0.00404845
0.00047842 0.00594767 0.00406839
0.00042741 0.00594707 0.00408259
0.00037643 0.00594668 0.00410254
0.00032544 0.00594628 0.00412248
0.00027443 0.00594568 0.00413668
0.00022344 0.00594529 0.00415663
0.00017245 0.00594489 0.00417659
0.00012144 0.00594450 0.00419652
0.00007044 0.00594410 0.00421648
0.00001944 0.00594371 0.00423643
-0.00003157 0.00594331 0.00425637
-0.00008257 0.00594312 0.00428207
-0.00013358 0.00594272 0.00430202
-0.00018460 0.00594233 0.00432199
-0.00023562 0.00594193 0.00434195
-0.00028664 0.00594174 0.00436765
-0.00033767 0.00594134 0.00438760
-0.00038871 0.00594054 0.00439607
-0.00043974 0.00594055 0.00442752
-0.00049078 0.00593995 0.00444174
-0.00054182 0.00593956 0.00446172
-0.00059286 0.00593916 0.00448167
-0.00064392 0.00593897 0.00450739
-0.00069498 0.00593898 0.00453888
-0.00074604 0.00593878 0.00456461
-0.00079711 0.00593859 0.00459035
-0.00084818 0.00593819 0.00461031
-0.00089925 0.00593780 0.00463030
-0.00095032 0.00593740 0.00465028
-0.00100137 0.00593660 0.00465874
-0.00105245 0.00593621 0.00467871
-0.00110350 0.00593541 0.00468718
-0.00115458 0.00593501 0.00470714
-0.00120566 0.00593462 0.00472714
-0.00125675 0.00593422 0.00474711
-0.00130782 0.00593362 0.00476132
-0.00135891 0.00593323 0.00478132
-0.00140998 0.00593263 0.00479554
-0.00146105 0.00593203 0.00480975
-0.00151218 0.00593184 0.00483552
-0.00156322 0.00593104 0.00484395
-0.00161425 0.00593024 0.00485241
-0.00166532 0.00592964 0.00486663
-0.00171635 0.00592884 0.00487508
-0.00176745 0.00592844 0.00489508
-0.00181852 0.00592785 0.00490929
-0.00186955 0.00592705 0.00491774
-0.00207448 0.00592748 0.00505546
-0.00212567 0.00592728 0.00508124
-0.00217677 0.00592668 0.00509547
-0.00253522 0.00592512 0.00527023
-0.00258640 0.00592472 0.00529025
-0.00304933 0.00592680 0.00563285
-0.00584744 0.00593674 0.00762850
-0.00589930 0.00593654 0.00765465
-0.00810387 0.00599151 0.01057030
-0.00815627 0.00599111 0.01059088
-0.00820867 0.00599070 0.01061149
-0.01648256 0.00555834 0.00335388
-0.01653207 0.00555776 0.00336766
-0.01658157 0.00555718 0.00338145
-0.01663059 0.00555642 0.00338969
-0.01667911 0.00555547 0.00339237
0.01176710 0.00575439 -0.00690249
0.01212294 0.00614253 0.00403130
0.01201834 0.00614089 0.00404853
0.01191375 0.00613925 0.00406575
0.01186107 0.00613822 0.00406854
0.01180879 0.00613740 0.00407714
0.01175533 0.00613595 0.00406826
0.01170306 0.00613513 0.00407685
0.00797400 0.00601785 0.00299965
0.00792190 0.00601664 0.00299673
0.00787035 0.00601583 0.00300527
0.00781853 0.00601482 0.00300808
0.00776621 0.00601340 0.00299942
0.00771493 0.00601280 0.00301370
0.00729535 0.00600022 0.00291014
0.00724389 0.00599941 0.00291869
0.00719194 0.00599820 0.00291578
0.00713977 0.00599678 0.00290714
0.00708808 0.00599578 0.00290994
0.00703665 0.00599497 0.00291848
0.00693355 0.00599316 0.00292982
0.00688235 0.00599256 0.00294408
0.00683092 0.00599176 0.00295261
0.00677973 0.00599116 0.00296687
0.00672808 0.00599015 0.00296967
0.00667644 0.00598914 0.00297248
0.00662413 0.00598753 0.00295813
0.00620624 0.00597459 0.00284342
0.00615491 0.00597379 0.00285193
0.00610380 0.00597319 0.00286616
0.00605248 0.00597239 0.00287469
0.00600117 0.00597159 0.00288321
0.00595006 0.00597099 0.00289744
0.00589874 0.00597019 0.00290596
0.00584764 0.00596959 0.00292020
0.00579633 0.00596879 0.00292870
0.00574523 0.00596819 0.00294293
0.00569412 0.00596759 0.00295717
0.00564282 0.00596679 0.00296569
0.00559171 0.00596619 0.00297992
0.00554041 0.00596539 0.00298843
0.00548931 0.00596480 0.00300264
0.00543821 0.00596420 0.00301687
0.00538710 0.00596360 0.00303110
0.00533582 0.00596280 0.00303963
0.00528472 0.00596220 0.00305384
0.00523361 0.00596160 0.00306807
0.00518251 0.00596100 0.00308231
0.00513123 0.00596020 0.00309081
0.00481826 0.00594892 0.00295912
0.00476689 0.00594792 0.00296192
0.00471536 0.00594672 0.00295901
0.00466367 0.00594531 0.00295040
0.00461249 0.00594451 0.00295891
0.00456147 0.00594391 0.00297311
0.00451012 0.00594291 0.00297591
0.00445895 0.00594211 0.00298442
0.00435645 0.00594031 0.00299571
0.00430544 0.00593972 0.00300992
0.00425427 0.00593892 0.00301841
0.00420326 0.00593832 0.00303261
0.00415210 0.00593752 0.00304112
0.00410109 0.00593693 0.00305532
0.00404994 0.00593613 0.00306381
0.00399892 0.00593553 0.00307801
0.00394806 0.00593513 0.00309794
0.00389718 0.00593474 0.00311783
0.00384604 0.00593394 0.00312634
0.00379516 0.00593354 0.00314625
0.00354521 0.00593863 0.00344598
0.00349388 0.00593763 0.00344874
0.00344255 0.00593662 0.00345153
0.00339149 0.00593603 0.00346574
0.00328911 0.00593443 0.00348273
0.00323780 0.00593343 0.00348550
0.00318686 0.00593303 0.00350545
0.00313557 0.00593203 0.00350821
0.00308427 0.00593103 0.00351098
0.00303310 0.00593023 0.00351946
0.00298216 0.00592983 0.00353941
0.00293110 0.00592923 0.00355363
0.00195731 0.00590843 0.00355460
0.00190625 0.00590764 0.00356306
0.00185541 0.00590744 0.00358871
0.00160190 0.00590867 0.00377992
0.00155087 0.00590807 0.00379413
0.00149986 0.00590748 0.00380833
0.00144884 0.00590688 0.00382254
0.00139782 0.00590628 0.00383675
0.00134680 0.00590569 0.00385095
0.00129579 0.00590509 0.00386515
0.00124476 0.00590449 0.00387937
0.00119369 0.00590369 0.00388783
0.00114272 0.00590330 0.00390777
0.00109171 0.00590270 0.00392199
0.00104069 0.00590210 0.00393619
0.00098971 0.00590171 0.00395611
0.00093869 0.00590111 0.00397032
0.00088767 0.00590051 0.00398453
0.00083665 0.00589991 0.00399873
0.00078563 0.00589932 0.00401294
0.00073457 0.00589852 0.00402142
0.00058141 0.00589613 0.00404681
0.00053036 0.00589533 0.00405528
0.00047938 0.00589493 0.00407521
0.00042837 0.00589433 0.00408943
0.00037739 0.00589394 0.00410937
0.00032637 0.00589334 0.00412358
0.00027538 0.00589294 0.00414352
0.00022436 0.00589235 0.00415772
0.00017337 0.00589195 0.00417767
0.00012239 0.00589175 0.00420336
0.00007137 0.00589115 0.00421757
0.00002038 0.00589096 0.00424325
-0.00003065 0.00589036 0.00425747
-0.00008164 0.00589016 0.00428317
-0.00013266 0.00588977 0.00430313
-0.00018368 0.00588937 0.00432308
-0.00023470 0.00588897 0.00434303
-0.00028571 0.00588878 0.00436874
-0.00033675 0.00588838 0.00438870
-0.00038778 0.00588778 0.00440291
-0.00043882 0.00588758 0.00442863
-0.00048986 0.00588699 0.00444283
-0.00054090 0.00588679 0.00446856
-0.00059194 0.00588639 0.00448853
-0.00064299 0.00588620 0.00451425
-0.00069405 0.00588620 0.00454573
-0.00074512 0.00588600 0.00457145
-0.00079620 0.00588581 0.00459719
-0.00084726 0.00588541 0.00461718
-0.00089834 0.00588501 0.00463715
-0.00094940 0.00588441 0.00465137
-0.00100045 0.00588361 0.00465983
-0.00105153 0.00588322 0.00467980
-0.00110259 0.00588262 0.00469401
-0.00115367 0.00588222 0.00471401
-0.00120474 0.00588162 0.00472823
-0.00125583 0.00588123 0.00474821
-0.00130692 0.00588083 0.00476819
-0.00135798 0.00588023 0.00478241
-0.00140905 0.00587963 0.00479664
-0.00146015 0.00587923 0.00481661
-0.00151128 0.00587904 0.00484236
-0.00156233 0.00587824 0.00485082
-0.00161333 0.00587724 0.00485350
-0.00166443 0.00587684 0.00487348
-0.00171546 0.00587605 0.00488195
-0.00176661 0.00587585 0.00490770
-0.00181768 0.00587525 0.00492193
-0.00191987 0.00587425 0.00495613
-0.00207366 0.00587486 0.00506811
-0.00212480 0.00587446 0.00508809
-0.00217590 0.00587386 0.00510232
-0.00222704 0.00587347 0.00512233
-0.00227819 0.00587307 0.00514233
-0.00232929 0.00587247 0.00515656
-0.00238032 0.00587167 0.00516501
-0.00243172 0.00587207 0.00520815
-0.00248300 0.00587208 0.00523974
-0.00253436 0.00587228 0.00527711
-0.00258547 0.00587168 0.00529134
-0.00289459 0.00587469 0.00556800
-0.00304849 0.00587390 0.00563975
-0.00309950 0.00587290 0.00564240
-0.00584701 0.00588389 0.00764731
-0.00589869 0.00588349 0.00766756
-0.00805054 0.00593779 0.01055081
-0.00810293 0.00593739 0.01057141
-0.00815533 0.00593698 0.01059200
-0.00820772 0.00593658 0.01061261
-0.00826037 0.00593638 0.01063927
-0.01175934 0.00589793 0.01168564
-0.01653069 0.00550621 0.00336318
0.01212428 0.00608888 0.00403824
0.01207198 0.00608806 0.00404686
0.01201968 0.00608724 0.00405547
0.01181051 0.00608397 0.00408994
0.01175745 0.00608274 0.00408687
0.00797493 0.00596462 0.00300075
0.00792283 0.00596341 0.00299782
0.00787128 0.00596261 0.00300637
0.00781946 0.00596160 0.00300919
0.00776713 0.00596019 0.00300051
0.00771585 0.00595959 0.00301479
0.00724506 0.00594647 0.00292550
0.00719311 0.00594526 0.00292259
0.00714118 0.00594405 0.00291967
0.00708949 0.00594305 0.00292249
0.00703781 0.00594204 0.00292531
0.00698638 0.00594124 0.00293384
0.00693494 0.00594044 0.00294237
0.00683208 0.00593884 0.00295943
0.00678112 0.00593844 0.00297941
0.00672946 0.00593744 0.00298221
0.00667782 0.00593643 0.00298502
0.00662618 0.00593543 0.00298783
0.00620717 0.00592155 0.00284451
0.00615584 0.00592075 0.00285302
0.00610452 0.00591995 0.00286154
0.00605341 0.00591935 0.00287578
0.00600210 0.00591855 0.00288430
0.00595078 0.00591775 0.00289282
0.00589967 0.00591715 0.00290705
0.00584836 0.00591635 0.00291558
0.00579726 0.00591576 0.00292981
0.00574596 0.00591496 0.00293833
0.00569485 0.00591436 0.00295256
0.00564375 0.00591376 0.00296678
0.00559264 0.00591316 0.00298101
0.00554154 0.00591256 0.00299524
0.00549043 0.00591196 0.00300947
0.00543913 0.00591116 0.00301798
0.00538803 0.00591057 0.00303221
0.00533693 0.00590997 0.00304644
0.00528582 0.00590937 0.00306065
0.00523472 0.00590877 0.00307488
0.00518362 0.00590817 0.00308912
0.00481918 0.00589596 0.00296021
0.00476764 0.00589476 0.00295730
0.00471579 0.00589316 0.00294299
0.00466443 0.00589216 0.00294580
0.00461325 0.00589136 0.00295429
0.00456223 0.00589077 0.00296851
0.00451105 0.00588997 0.00297700
0.00440855 0.00588817 0.00298831
0.00435738 0.00588738 0.00299680
0.00430636 0.00588678 0.00301100
0.00425520 0.00588598 0.00301950
0.00420418 0.00588538 0.00303370
0.00415303 0.00588459 0.00304221
0.00410202 0.00588399 0.00305642
0.00405086 0.00588319 0.00306492
0.00399985 0.00588260 0.00307912
0.00394899 0.00588220 0.00309902
0.00389810 0.00588180 0.00311893
0.00384709 0.00588120 0.00313313
0.00359734 0.00588642 0.00343858
0.00354613 0.00588562 0.00344709
0.00349493 0.00588483 0.00345556
0.00344348 0.00588363 0.00345261
0.00339254 0.00588323 0.00347257
0.00334134 0.00588243 0.00348105
0.00323885 0.00588064 0.00349233
0.00318778 0.00588004 0.00350654
0.00313660 0.00587924 0.00351503
0.00308531 0.00587824 0.00351779
0.00303414 0.00587745 0.00352629
0.00298308 0.00587685 0.00354050
0.00293213 0.00587645 0.00356044
0.00195823 0.00585553 0.00355569
0.00190724 0.00585493 0.00356989
0.00185634 0.00585453 0.00358979
0.00165390 0.00585652 0.00377253
0.00160288 0.00585593 0.00378673
0.00155186 0.00585533 0.00380094
0.00150084 0.00585473 0.00381514
0.00144982 0.00585413 0.00382935
0.00139880 0.00585354 0.00384356
0.00134773 0.00585274 0.00385204
0.00129671 0.00585214 0.00386626
0.00124569 0.00585155 0.00388046
0.00119467 0.00585095 0.00389466
0.00114365 0.00585035 0.00390887
0.00109268 0.00584995 0.00392880
0.00104166 0.00584936 0.00394300
0.00099064 0.00584876 0.00395721
0.00093962 0.00584816 0.00397141
0.00088864 0.00584776 0.00399135
0.00083762 0.00584717 0.00400557
0.00078656 0.00584637 0.00401403
0.00073550 0.00584557 0.00402251
0.00058233 0.00584319 0.00404790
0.00053128 0.00584239 0.00405636
0.00048031 0.00584199 0.00407632
0.00042929 0.00584140 0.00409052
0.00037831 0.00584100 0.00411047
0.00032729 0.00584040 0.00412467
0.00027630 0.00584000 0.00414461
0.00022528 0.00583940 0.00415882
0.00017429 0.00583901 0.00417878
0.00012329 0.00583861 0.00419870
0.00007229 0.00583821 0.00421865
0.00002128 0.00583781 0.00423861
-0.00002974 0.00583721 0.00425282
-0.00008073 0.00583701 0.00427851
-0.00013174 0.00583661 0.00429846
-0.00018277 0.00583621 0.00431843
-0.00023378 0.00583601 0.00434412
-0.00028479 0.00583581 0.00436984
-0.00033582 0.00583542 0.00438979
-0.00038686 0.00583482 0.00440401
-0.00043789 0.00583482 0.00443548
-0.00048893 0.00583422 0.00444970
-0.00053997 0.00583402 0.00447540
-0.00059102 0.00583362 0.00449537
-0.00064207 0.00583342 0.00452110
-0.00069314 0.00583362 0.00455834
-0.00074420 0.00583322 0.00457832
-0.00079528 0.00583302 0.00460406
-0.00084634 0.00583242 0.00461827
-0.00089742 0.00583202 0.00463824
-0.00094848 0.00583142 0.00465246
-0.00099954 0.00583082 0.00466667
-0.00105061 0.00583023 0.00468090
-0.00110167 0.00582963 0.00469512
-0.00115275 0.00582923 0.00471510
-0.00120384 0.00582883 0.00473508
-0.00125490 0.00582823 0.00474930
-0.00130599 0.00582783 0.00476928
-0.00135709 0.00582743 0.00478926
-0.00140816 0.00582684 0.00480348
-0.00145923 0.00582624 0.00481771
-0.00151042 0.00582643 0.00485501
-0.00156143 0.00582544 0.00485767
-0.00161246 0.00582464 0.00486614
-0.00166358 0.00582424 0.00488612
-0.00176572 0.00582305 0.00491455
-0.00181684 0.00582265 0.00493455
-0.00186787 0.00582185 0.00494300
-0.00191907 0.00582185 0.00497454
-0.00197015 0.00582125 0.00498876
-0.00207279 0.00582204 0.00507496
-0.00212393 0.00582164 0.00509498
-0.00217502 0.00582104 0.00510919
-0.00222617 0.00582064 0.00512920
-0.00227732 0.00582024 0.00514922
-0.00232842 0.00581964 0.00516345
-0.00237952 0.00581905 0.00517766
-0.00243080 0.00581904 0.00520924
-0.00299638 0.00582139 0.00562660
-0.00304764 0.00582099 0.00564665
-0.00309865 0.00581999 0.00564930
-0.00314999 0.00581979 0.00567515
-0.00579423 0.00583063 0.00762226
-0.00584658 0.00583103 0.00766614
-0.00589810 0.00583043 0.00768049
-0.01175732 0.00584318 0.01166841
-0.01180877 0.00584216 0.01167071
-0.01196419 0.00583972 0.01169597
0.01212602 0.00603543 0.00405103
0.01207332 0.00603441 0.00405382
0.00797586 0.00591139 0.00300185
0.00792376 0.00591019 0.00299892
0.00787221 0.00590938 0.00300746
0.00782013 0.00590818 0.00300454
0.00766396 0.00590456 0.00299577
0.00750536 0.00589893 0.00292972
0.00729745 0.00589412 0.00291806
0.00724598 0.00589332 0.00292660
0.00719404 0.00589212 0.00292368
0.00714211 0.00589091 0.00292078
0.00709042 0.00588991 0.00292358
0.00703898 0.00588911 0.00293213
0.00698730 0.00588811 0.00293493
0.00693610 0.00588751 0.00294919
0.00688467 0.00588671 0.00295772
0.00678205 0.00588531 0.00298052
0.00673062 0.00588451 0.00298904
0.00667897 0.00588351 0.00299186
0.00662733 0.00588251 0.00299466
0.00620809 0.00586851 0.00284562
0.00615676 0.00586771 0.00285412
0.00610565 0.00586711 0.00286835
0.00605434 0.00586631 0.00287688
0.00600302 0.00586551 0.00288540
0.00595191 0.00586491 0.00289963
0.00590060 0.00586412 0.00290816
0.00584949 0.00586352 0.00292239
0.00579818 0.00586272 0.00293089
0.00574708 0.00586212 0.00294513
0.00569597 0.00586152 0.00295936
0.00564467 0.00586073 0.00296788
0.00559356 0.00586013 0.00298211
0.00554246 0.00585953 0.00299634
0.00549136 0.00585893 0.00301057
0.00544006 0.00585813 0.00301906
0.00538895 0.00585754 0.00303330
0.00533785 0.00585694 0.00304753
0.00528675 0.00585634 0.00306176
0.00523564 0.00585574 0.00307599
0.00518436 0.00585494 0.00308450
0.00482010 0.00584299 0.00296129
0.00476873 0.00584200 0.00296411
0.00471688 0.00584041 0.00294979
0.00466552 0.00583941 0.00295259
0.00461434 0.00583861 0.00296108
0.00456331 0.00583802 0.00297530
0.00451197 0.00583702 0.00297809
0.00440947 0.00583523 0.00298940
0.00435845 0.00583464 0.00300360
0.00430728 0.00583384 0.00301209
0.00425612 0.00583304 0.00302058
0.00420510 0.00583245 0.00303480
0.00415395 0.00583165 0.00304331
0.00410294 0.00583105 0.00305751
0.00405179 0.00583026 0.00306600
0.00400077 0.00582966 0.00308020
0.00394991 0.00582926 0.00310011
0.00389903 0.00582886 0.00312002
0.00384802 0.00582827 0.00313422
0.00364947 0.00583421 0.00343117
0.00359826 0.00583342 0.00343966
0.00354718 0.00583282 0.00345390
0.00349599 0.00583202 0.00346239
0.00344453 0.00583083 0.00345944
0.00339346 0.00583023 0.00347365
0.00334227 0.00582944 0.00348215
0.00323989 0.00582784 0.00349914
0.00318871 0.00582705 0.00350764
0.00313753 0.00582625 0.00351612
0.00308635 0.00582545 0.00352462
0.00303517 0.00582466 0.00353311
0.00298411 0.00582406 0.00354733
0.00293317 0.00582366 0.00356728
0.00288242 0.00582366 0.00359868
0.00283125 0.00582286 0.00360717
0.00201014 0.00580322 0.00354259
0.00195916 0.00580262 0.00355679
0.00190824 0.00580222 0.00357670
0.00185733 0.00580182 0.00359660
0.00175666 0.00580418 0.00372803
0.00170578 0.00580398 0.00375369
0.00165490 0.00580378 0.00377935
0.00160381 0.00580298 0.00378783
0.00155278 0.00580238 0.00380203
0.00150177 0.00580179 0.00381623
0.00145074 0.00580119 0.00383045
0.00139972 0.00580059 0.00384465
0.00134865 0.00579980 0.00385314
0.00129768 0.00579940 0.00387307
0.00124666 0.00579880 0.00388727
0.00119559 0.00579801 0.00389576
0.00114462 0.00579761 0.00391568
0.00109360 0.00579701 0.00392988
0.00104263 0.00579661 0.00394982
0.00099161 0.00579601 0.00396404
0.00094059 0.00579541 0.00397824
0.00088957 0.00579482 0.00399245
0.00083854 0.00579422 0.00400665
0.00078752 0.00579362 0.00402085
0.00073646 0.00579283 0.00402933
0.00068540 0.00579203 0.00403781
0.00058326 0.00579025 0.00404900
0.00053221 0.00578945 0.00405747
0.00048123 0.00578905 0.00407740
0.00043021 0.00578846 0.00409161
0.00037920 0.00578786 0.00410582
0.00032822 0.00578746 0.00412576
0.00027723 0.00578706 0.00414571
0.00022621 0.00578646 0.00415991
0.00017522 0.00578606 0.00417987
0.00012421 0.00578566 0.00419980
0.00007319 0.00578506 0.00421400
0.00002221 0.00578486 0.00423971
-0.00002881 0.00578426 0.00425391
-0.00007981 0.00578406 0.00427960
-0.00013082 0.00578366 0.00429957
-0.00018184 0.00578326 0.00431952
-0.00023284 0.00578325 0.00435098
-0.00028387 0.00578285 0.00437093
-0.00033489 0.00578265 0.00439663
-0.00038593 0.00578205 0.00441085
-0.00043696 0.00578204 0.00444232
-0.00048800 0.00578145 0.00445653
-0.00053905 0.00578124 0.00448224
-0.00059010 0.00578065 0.00449646
-0.00064115 0.00578064 0.00452794
-0.00069222 0.00578063 0.00455943
-0.00074328 0.00578023 0.00457941
-0.00079435 0.00578003 0.00460514
-0.00084542 0.00577963 0.00462511
-0.00089650 0.00577923 0.00464511
-0.00094757 0.00577863 0.00465932
-0.00099863 0.00577803 0.00467354
-0.00104968 0.00577724 0.00468199
-0.00110076 0.00577684 0.00470197
-0.00115184 0.00577644 0.00472195
-0.00120291 0.00577584 0.00473617
-0.00125398 0.00577524 0.00475039
-0.00130509 0.00577504 0.00477614
-0.00135616 0.00577444 0.00479035
-0.00140724 0.00577384 0.00480458
-0.00145830 0.00577324 0.00481880
-0.00150949 0.00577343 0.00485609
-0.00156051 0.00577244 0.00485878
-0.00161158 0.00577184 0.00487299
-0.00176483 0.00577025 0.00492142
-0.00181595 0.00576984 0.00494143
-0.00207190 0.00576921 0.00508183
-0.00212305 0.00576881 0.00510184
-0.00217415 0.00576822 0.00511608
-0.00222535 0.00576801 0.00514185
-0.00227651 0.00576761 0.00516187
-0.00232766 0.00576721 0.00518188
-0.00237877 0.00576661 0.00519611
-0.00242998 0.00576641 0.00522192
-0.00248127 0.00576640 0.00525349
-0.00299546 0.00576829 0.00562769
-0.00304663 0.00576769 0.00564195
-0.00309773 0.00576689 0.00565039
-0.00314898 0.00576649 0.00567044
-0.00320008 0.00576569 0.00567889
-0.00434363 0.00578194 0.00686297
-0.00579363 0.00577757 0.00763518
-0.00584598 0.00577796 0.00767906
-0.01170420 0.00578964 0.01165500
-0.01175637 0.00578903 0.01166953
-0.01180783 0.00578802 0.01167183
-0.01185964 0.00578721 0.01168025
-0.01191217 0.00578680 0.01170088
-0.01196324 0.00578558 0.01169708
-0.01201505 0.00578477 0.01170549
0.01212737 0.00598178 0.00405799
0.01207425 0.00598055 0.00405492
0.01058774 0.00594423 0.00391130
0.00856034 0.00591408 0.00428677
0.00797678 0.00585816 0.00300294
0.00787313 0.00585616 0.00300856
0.00782106 0.00585496 0.00300564
0.00750603 0.00584556 0.00292510
0.00745354 0.00584396 0.00291072
0.00735034 0.00584217 0.00292207
0.00724716 0.00584037 0.00293343
0.00719546 0.00583937 0.00293624
0.00714375 0.00583837 0.00293905
0.00709207 0.00583737 0.00294186
0.00704014 0.00583618 0.00293894
0.00698870 0.00583538 0.00294748
0.00693750 0.00583478 0.00296174
0.00688583 0.00583378 0.00296454
0.00683417 0.00583278 0.00296734
0.00678320 0.00583238 0.00298733
0.00668013 0.00583059 0.00299866
0.00662871 0.00582979 0.00300720
0.00615790 0.00581487 0.00286093
0.00610658 0.00581407 0.00286944
0.00605526 0.00581327 0.00287797
0.00600395 0.00581247 0.00288649
0.00595283 0.00581188 0.00290072
0.00590152 0.00581108 0.00290924
0.00585042 0.00581048 0.00292347
0.00579911 0.00580969 0.00293200
0.00574800 0.00580909 0.00294623
0.00569689 0.00580849 0.00296046
0.00564579 0.00580789 0.00297469
0.00559468 0.00580729 0.00298892
0.00554338 0.00580650 0.00299743
0.00549228 0.00580590 0.00301166
0.00544118 0.00580530 0.00302589
0.00538988 0.00580450 0.00303440
0.00533878 0.00580391 0.00304861
0.00528768 0.00580331 0.00306284
0.00523657 0.00580271 0.00307707
0.00518547 0.00580211 0.00309131
0.00482119 0.00579022 0.00296810
0.00476966 0.00578903 0.00296520
0.00471813 0.00578785 0.00296229
0.00466661 0.00578666 0.00295939
0.00461542 0.00578586 0.00296789
0.00456424 0.00578507 0.00297639
0.00451305 0.00578427 0.00298490
0.00446172 0.00578328 0.00298770
0.00435937 0.00578170 0.00300470
0.00430821 0.00578090 0.00301319
0.00425719 0.00578030 0.00302739
0.00420603 0.00577951 0.00303589
0.00415487 0.00577872 0.00304440
0.00410386 0.00577812 0.00305860
0.00405271 0.00577733 0.00306709
0.00400170 0.00577673 0.00308129
0.00395083 0.00577633 0.00310121
0.00389995 0.00577593 0.00312111
0.00384908 0.00577553 0.00314103
0.00365040 0.00578121 0.00343227
0.00359906 0.00578022 0.00343505
0.00354798 0.00577962 0.00344926
0.00349678 0.00577882 0.00345775
0.00344546 0.00577783 0.00346053
0.00339439 0.00577723 0.00347476
0.00334319 0.00577644 0.00348324
0.00324081 0.00577485 0.00350022
0.00318975 0.00577425 0.00351445
0.00313845 0.00577326 0.00351721
0.00308728 0.00577247 0.00352572
0.00303621 0.00577187 0.00353993
0.00298515 0.00577127 0.00355415
0.00293409 0.00577067 0.00356837
0.00288346 0.00577086 0.00360550
0.00283228 0.00577007 0.00361398
0.00211303 0.00575150 0.00351529
0.00206220 0.00575130 0.00354090
0.00201122 0.00575070 0.00355510
0.00196023 0.00575010 0.00356930
0.00190932 0.00574970 0.00358923
0.00185848 0.00574950 0.00361487
0.00180771 0.00574949 0.00364622
0.00175765 0.00575144 0.00373486
0.00170671 0.00575103 0.00375479
0.00165582 0.00575083 0.00378044
0.00160480 0.00575023 0.00379466
0.00155377 0.00574963 0.00380886
0.00150275 0.00574904 0.00382307
0.00145167 0.00574824 0.00383154
0.00140065 0.00574765 0.00384574
0.00134963 0.00574705 0.00385995
0.00129860 0.00574645 0.00387415
0.00124759 0.00574586 0.00388835
0.00119656 0.00574526 0.00390257
0.00114555 0.00574466 0.00391677
0.00109452 0.00574406 0.00393097
0.00104355 0.00574366 0.00395092
0.00099253 0.00574306 0.00396512
0.00094151 0.00574247 0.00397934
0.00089054 0.00574207 0.00399928
0.00083947 0.00574127 0.00400774
0.00078845 0.00574068 0.00402196
0.00073738 0.00573988 0.00403042
0.00068633 0.00573909 0.00403890
0.00058418 0.00573731 0.00405009
0.00053311 0.00573632 0.00405283
0.00048215 0.00573611 0.00407849
0.00043114 0.00573552 0.00409271
0.00038013 0.00573492 0.00410691
0.00032914 0.00573452 0.00412685
0.00027815 0.00573412 0.00414680
0.00022713 0.00573352 0.00416100
0.00017614 0.00573312 0.00418095
0.00012514 0.00573272 0.00420089
0.00007412 0.00573212 0.00421509
0.00002313 0.00573191 0.00424080
-0.00002789 0.00573132 0.00425500
-0.00007888 0.00573111 0.00428070
-0.00012991 0.00573051 0.00429490
-0.00018092 0.00573030 0.00432061
-0.00023191 0.00573029 0.00435206
-0.00028294 0.00572989 0.00437202
-0.00033397 0.00572968 0.00439772
-0.00038501 0.00572909 0.00441194
-0.00043603 0.00572908 0.00444341
-0.00048708 0.00572848 0.00445762
-0.00053813 0.00572827 0.00448334
-0.00058917 0.00572787 0.00450332
-0.00064023 0.00572786 0.00453480
-0.00069130 0.00572785 0.00456628
-0.00074236 0.00572744 0.00458625
-0.00079343 0.00572724 0.00461200
-0.00084451 0.00572683 0.00463198
-0.00089558 0.00572624 0.00464620
-0.00094664 0.00572564 0.00466041
-0.00099771 0.00572504 0.00467463
-0.00104877 0.00572444 0.00468886
-0.00109984 0.00572384 0.00470307
-0.00115092 0.00572344 0.00472304
-0.00120201 0.00572304 0.00474304
-0.00125307 0.00572244 0.00475726
-0.00130417 0.00572204 0.00477724
-0.00135524 0.00572144 0.00479145
-0.00140631 0.00572084 0.00480567
-0.00145743 0.00572064 0.00483142
-0.00150860 0.00572062 0.00486295
-0.00155964 0.00571983 0.00487141
-0.00232701 0.00571515 0.00521189
-0.00237818 0.00571475 0.00523190
-0.00242930 0.00571415 0.00524613
-0.00284086 0.00571659 0.00557443
-0.00299453 0.00571518 0.00562879
-0.00304579 0.00571478 0.00564884
-0.00309680 0.00571379 0.00565149
-0.00314805 0.00571338 0.00567155
-0.00434294 0.00572898 0.00687583
-0.00439375 0.00572739 0.00686079
-0.00444528 0.00572698 0.00688097
-0.00454823 0.00572598 0.00691546
-0.00485915 0.00572591 0.00710715
-0.00491100 0.00572589 0.00713913
-0.00568918 0.00572473 0.00758988
-0.00574085 0.00572432 0.00761013
-0.00621162 0.00572678 0.00797589
-0.00809985 0.00577483 0.01056868
-0.01170396 0.00573590 0.01166834
-0.01175579 0.00573509 0.01167676
-0.01180724 0.00573408 0.01167907
-0.01185942 0.00573347 0.01169358
-0.01191159 0.00573286 0.01170811
-0.01196266 0.00573165 0.01170431
0.01212911 0.00592832 0.00407077
0.01207560 0.00592689 0.00406188
0.01058903 0.00589073 0.00391825
0.00861327 0.00586124 0.00427930
0.00797771 0.00580493 0.00300404
0.00792588 0.00580394 0.00300686
0.00787459 0.00580334 0.00302114
0.00782278 0.00580234 0.00302394
0.00777018 0.00580075 0.00300956
0.00750746 0.00579279 0.00293764
0.00745472 0.00579100 0.00291754
0.00740299 0.00579001 0.00292036
0.00735176 0.00578941 0.00293462
0.00730029 0.00578861 0.00294316
0.00719687 0.00578662 0.00294878
0.00714540 0.00578582 0.00295731
0.00709419 0.00578522 0.00297157
0.00704250 0.00578423 0.00297439
0.00699128 0.00578363 0.00298865
0.00693983 0.00578283 0.00299717
0.00688792 0.00578164 0.00299425
0.00683602 0.00578045 0.00299135
0.00678482 0.00577985 0.00300559
0.00673316 0.00577885 0.00300841
0.00662964 0.00577667 0.00300829
0.00615883 0.00576182 0.00286204
0.00610750 0.00576103 0.00287054
0.00605639 0.00576043 0.00288478
0.00600508 0.00575963 0.00289330
0.00595376 0.00575884 0.00290182
0.00590245 0.00575804 0.00291035
0.00585134 0.00575745 0.00292456
0.00580004 0.00575665 0.00293308
0.00574893 0.00575605 0.00294732
0.00569782 0.00575546 0.00296155
0.00564672 0.00575486 0.00297578
0.00559561 0.00575426 0.00299001
0.00554431 0.00575346 0.00299853
0.00549321 0.00575287 0.00301275
0.00544191 0.00575207 0.00302126
0.00539080 0.00575147 0.00303549
0.00533970 0.00575087 0.00304972
0.00528860 0.00575028 0.00306395
0.00523749 0.00574968 0.00307818
0.00518639 0.00574908 0.00309241
0.00482212 0.00573726 0.00296919
0.00477075 0.00573627 0.00297199
0.00471905 0.00573489 0.00296338
0.00466753 0.00573371 0.00296047
0.00461634 0.00573291 0.00296898
0.00456532 0.00573232 0.00298318
0.00451398 0.00573133 0.00298598
0.00446265 0.00573034 0.00298879
0.00436030 0.00572876 0.00300579
0.00430913 0.00572796 0.00301428
0.00425812 0.00572737 0.00302848
0.00420710 0.00572677 0.00304268
0.00415580 0.00572578 0.00304548
0.00410479 0.00572518 0.00305969
0.00405377 0.00572459 0.00307390
0.00400277 0.00572399 0.00308810
0.00395189 0.00572359 0.00310799
0.00390102 0.00572319 0.00312792
0.00385001 0.00572259 0.00314212
0.00365093 0.00572762 0.00341620
0.00359972 0.00572682 0.00342467
0.00354865 0.00572622 0.00343890
0.00349758 0.00572563 0.00345312
0.00344625 0.00572464 0.00345589
0.00339519 0.00572404 0.00347011
0.00334400 0.00572325 0.00347862
0.00329293 0.00572265 0.00349283
0.00324162 0.00572166 0.00349560
0.00319044 0.00572087 0.00350410
0.00313926 0.00572008 0.00351259
0.00308809 0.00571928 0.00352107
0.00303691 0.00571849 0.00352958
0.00298596 0.00571809 0.00354950
0.00293491 0.00571749 0.00356373
0.00288417 0.00571748 0.00359513
0.00283311 0.00571688 0.00360934
0.00278204 0.00571628 0.00362357
0.00273097 0.00571568 0.00363779
0.00267981 0.00571489 0.00364627
0.00262874 0.00571429 0.00366049
0.00257748 0.00571331 0.00366324
0.00211412 0.00569898 0.00352781
0.00206329 0.00569877 0.00355344
0.00201230 0.00569818 0.00356764
0.00196124 0.00569739 0.00357611
0.00191040 0.00569718 0.00360176
0.00185948 0.00569677 0.00362167
0.00180900 0.00569754 0.00367594
0.00175857 0.00569849 0.00373594
0.00170763 0.00569809 0.00375588
0.00165674 0.00569788 0.00378154
0.00160572 0.00569728 0.00379574
0.00155470 0.00569669 0.00380994
0.00150368 0.00569609 0.00382416
0.00145260 0.00569530 0.00383262
0.00140157 0.00569470 0.00384684
0.00135055 0.00569410 0.00386104
0.00129953 0.00569351 0.00387524
0.00124851 0.00569291 0.00388946
0.00119749 0.00569231 0.00390366
0.00114647 0.00569172 0.00391786
0.00109545 0.00569112 0.00393207
0.00104448 0.00569071 0.00395201
0.00099346 0.00569012 0.00396623
0.00094249 0.00568971 0.00398616
0.00089141 0.00568892 0.00399463
0.00084039 0.00568833 0.00400884
0.00078937 0.00568773 0.00402305
0.00073831 0.00568694 0.00403151
0.00068725 0.00568615 0.00403999
0.00058507 0.00568418 0.00404544
0.00053399 0.00568319 0.00404818
0.00048304 0.00568298 0.00407384
0.00043206 0.00568258 0.00409380
0.00038105 0.00568198 0.00410800
0.00033006 0.00568158 0.00412795
0.00027907 0.00568118 0.00414789
0.00022806 0.00568058 0.00416210
0.00017707 0.00568018 0.00418204
0.00012606 0.00567977 0.00420198
0.00007504 0.00567917 0.00421619
0.00002404 0.00567877 0.00423615
-0.00002698 0.00567817 0.00425035
-0.00007798 0.00567796 0.00427605
-0.00012900 0.00567737 0.00429025
-0.00018000 0.00567716 0.00431596
-0.00023100 0.00567714 0.00434740
-0.00028202 0.00567693 0.00437312
-0.00033304 0.00567672 0.00439882
-0.00038408 0.00567612 0.00441302
-0.00043511 0.00567610 0.00444451
-0.00048615 0.00567570 0.00446446
-0.00053719 0.00567568 0.00449595
-0.00058825 0.00567528 0.00451592
-0.00063931 0.00567526 0.00454740
-0.00069037 0.00567505 0.00457314
-0.00074144 0.00567465 0.00459312
-0.00079251 0.00567425 0.00461309
-0.00084359 0.00567384 0.00463307
-0.00089466 0.00567344 0.00465305
-0.00094571 0.00567265 0.00466152
-0.00099678 0.00567205 0.00467573
-0.00104784 0.00567145 0.00468995
-0.00109891 0.00567085 0.00470416
-0.00115000 0.00567045 0.00472414
-0.00120108 0.00567004 0.00474413
-0.00125215 0.00566945 0.00475834
-0.00130324 0.00566904 0.00477833
-0.00135431 0.00566844 0.00479254
-0.00140539 0.00566785 0.00480677
-0.00145648 0.00566744 0.00482675
-0.00150767 0.00566762 0.00486405
-0.00278883 0.00566428 0.00556709
-0.00284000 0.00566368 0.00558133
-0.00289110 0.00566288 0.00558978
-0.00294228 0.00566228 0.00560403
-0.00299383 0.00566265 0.00564732
-0.00304493 0.00566186 0.00565575
-0.00309596 0.00566088 0.00565839
-0.00314737 0.00566086 0.00569005
-0.00319839 0.00565987 0.00569269
-0.00429095 0.00567681 0.00688022
-0.00434237 0.00567620 0.00689454
-0.00439330 0.00567482 0.00688536
-0.00444484 0.00567441 0.00690556
-0.00449650 0.00567420 0.00693162
-0.00454792 0.00567360 0.00694594
-0.00485822 0.00567252 0.00710826
-0.00491021 0.00567270 0.00714611
-0.00542885 0.00567195 0.00744846
-0.00568825 0.00567127 0.00759098
-0.00573976 0.00567067 0.00760533
-0.00621068 0.00567325 0.00797699
-0.00626226 0.00567265 0.00799136
-0.00631402 0.00567224 0.00801164
-0.01170302 0.00568176 0.01166946
-0.01175520 0.00568114 0.01168399
-0.01180666 0.00568014 0.01168630
-0.01185883 0.00567953 0.01170082
-0.01191101 0.00567892 0.01171535
-0.01196209 0.00567771 0.01171152
-0.01201352 0.00567670 0.01171383
0.01298568 0.00592021 0.00490490
0.01213126 0.00587506 0.00408939
0.01207734 0.00587344 0.00407466
0.01059067 0.00583743 0.00393097
0.00861507 0.00580820 0.00429788
0.00797890 0.00575190 0.00301088
0.00792735 0.00575110 0.00301942
0.00787579 0.00575031 0.00302798
0.00782423 0.00574951 0.00303651
0.00777163 0.00574792 0.00302212
0.00750814 0.00573942 0.00293301
0.00745590 0.00573803 0.00292437
0.00740391 0.00573685 0.00292145
0.00735294 0.00573644 0.00294144
0.00730122 0.00573545 0.00294425
0.00724975 0.00573465 0.00295278
0.00719779 0.00573347 0.00294988
0.00714657 0.00573287 0.00296414
0.00709511 0.00573207 0.00297266
0.00704366 0.00573128 0.00298122
0.00699221 0.00573048 0.00298974
0.00694076 0.00572969 0.00299828
0.00688908 0.00572869 0.00300108
0.00683695 0.00572731 0.00299244
0.00678575 0.00572671 0.00300670
0.00673386 0.00572552 0.00300378
0.00663034 0.00572335 0.00300366
0.00615997 0.00570897 0.00286883
0.00610864 0.00570818 0.00287735
0.00605732 0.00570739 0.00288586
0.00600600 0.00570659 0.00289439
0.00595469 0.00570580 0.00290291
0.00590357 0.00570520 0.00291714
0.00585227 0.00570441 0.00292566
0.00580096 0.00570362 0.00293419
0.00574985 0.00570302 0.00294842
0.00569875 0.00570242 0.00296265
0.00564764 0.00570182 0.00297688
0.00559653 0.00570122 0.00299111
0.00554542 0.00570063 0.00300533
0.00549413 0.00569983 0.00301385
0.00544303 0.00569923 0.00302808
0.00539173 0.00569844 0.00303657
0.00534063 0.00569784 0.00305080
0.00528953 0.00569724 0.00306503
0.00523842 0.00569665 0.00307927
0.00518732 0.00569605 0.00309350
0.00482288 0.00568410 0.00296457
0.00477134 0.00568292 0.00296168
0.00471948 0.00568135 0.00294736
0.00466813 0.00568037 0.00295016
0.00461711 0.00567977 0.00296436
0.00456592 0.00567898 0.00297287
0.00451475 0.00567819 0.00298136
0.00446357 0.00567740 0.00298989
0.00436122 0.00567581 0.00300688
0.00431006 0.00567502 0.00301537
0.00425889 0.00567423 0.00302386
0.00420788 0.00567364 0.00303808
0.00415672 0.00567285 0.00304659
0.00410571 0.00567225 0.00306079
0.00405456 0.00567146 0.00306928
0.00400369 0.00567105 0.00308919
0.00395282 0.00567065 0.00310910
0.00390194 0.00567025 0.00312901
0.00365159 0.00567423 0.00340584
0.00360039 0.00567344 0.00341433
0.00354945 0.00567303 0.00343429
0.00349825 0.00567224 0.00344276
0.00344706 0.00567145 0.00345127
0.00339599 0.00567085 0.00346549
0.00334492 0.00567025 0.00347970
0.00329373 0.00566946 0.00348820
0.00324243 0.00566848 0.00349097
0.00319125 0.00566769 0.00349946
0.00314007 0.00566689 0.00350796
0.00308890 0.00566610 0.00351645
0.00303784 0.00566551 0.00353067
0.00298689 0.00566510 0.00355060
0.00293583 0.00566450 0.00356482
0.00288498 0.00566429 0.00359049
0.00283392 0.00566369 0.00360471
0.00278286 0.00566310 0.00361893
0.00273179 0.00566250 0.00363314
0.00268063 0.00566171 0.00364164
0.00262947 0.00566092 0.00365011
0.00257821 0.00565993 0.00365287
0.00211520 0.00564646 0.00354034
0.00206430 0.00564605 0.00356026
0.00201322 0.00564526 0.00356872
0.00196223 0.00564467 0.00358292
0.00191132 0.00564426 0.00360285
0.00186048 0.00564405 0.00362849
0.00180985 0.00564442 0.00367130
0.00175950 0.00564555 0.00373705
0.00170856 0.00564515 0.00375697
0.00165767 0.00564494 0.00378263
0.00160658 0.00564415 0.00379111
0.00155556 0.00564355 0.00380531
0.00150454 0.00564295 0.00381951
0.00145352 0.00564235 0.00383373
0.00140250 0.00564176 0.00384793
0.00135148 0.00564116 0.00386213
0.00130046 0.00564056 0.00387634
0.00124944 0.00563996 0.00389054
0.00119842 0.00563937 0.00390474
0.00114740 0.00563877 0.00391896
0.00109638 0.00563817 0.00393316
0.00104540 0.00563777 0.00395310
0.00099438 0.00563717 0.00396731
0.00094336 0.00563657 0.00398152
0.00089234 0.00563598 0.00399573
0.00084132 0.00563538 0.00400993
0.00079029 0.00563478 0.00402413
0.00073923 0.00563399 0.00403260
0.00068818 0.00563320 0.00404109
0.00058599 0.00563124 0.00404653
0.00053492 0.00563026 0.00404927
0.00048396 0.00563005 0.00407495
0.00043299 0.00562964 0.00409488
0.00038198 0.00562904 0.00410908
0.00033099 0.00562864 0.00412904
0.00028000 0.00562823 0.00414899
0.00022898 0.00562764 0.00416319
0.00017799 0.00562723 0.00418314
0.00012699 0.00562683 0.00420308
0.00007597 0.00562623 0.00421728
0.00002496 0.00562582 0.00423723
-0.00002606 0.00562523 0.00425144
-0.00007705 0.00562501 0.00427714
-0.00012807 0.00562461 0.00429709
-0.00017907 0.00562439 0.00432280
-0.00023007 0.00562437 0.00435425
-0.00028108 0.00562416 0.00437996
-0.00033211 0.00562395 0.00440566
-0.00038315 0.00562335 0.00441988
-0.00043418 0.00562352 0.00445710
-0.00048522 0.00562311 0.00447708
-0.00053627 0.00562309 0.00450855
-0.00058733 0.00562288 0.00453427
-0.00063839 0.00562266 0.00456001
-0.00068945 0.00562226 0.00457999
-0.00074053 0.00562185 0.00459996
-0.00079159 0.00562145 0.00461994
-0.00084267 0.00562104 0.00463992
-0.00089374 0.00562044 0.00465414
-0.00094480 0.00561985 0.00466835
-0.00099587 0.00561925 0.00468257
-0.00104692 0.00561846 0.00469103
-0.00109801 0.00561805 0.00471102
-0.00114907 0.00561746 0.00472523
-0.00120016 0.00561705 0.00474522
-0.00125125 0.00561664 0.00476520
-0.00130234 0.00561624 0.00478519
-0.00135341 0.00561564 0.00479941
-0.00140448 0.00561504 0.00481363
-0.00212082 0.00561185 0.00516874
-0.00232549 0.00561022 0.00524880
-0.00237674 0.00561001 0.00527459
-0.00273680 0.00561196 0.00555974
-0.00278790 0.00561117 0.00556819
-0.00283915 0.00561076 0.00558823
-0.00289018 0.00560978 0.00559089
-0.00294135 0.00560918 0.00560513
-0.00299282 0.00560935 0.00564261
-0.00304393 0.00560856 0.00565104
-0.00309503 0.00560777 0.00565948
-0.00314644 0.00560775 0.00569116
-0.00319746 0.00560676 0.00569378
-0.00423836 0.00562366 0.00685525
-0.00429001 0.00562344 0.00688133
-0.00434156 0.00562303 0.00690150
-0.00439249 0.00562166 0.00689234
-0.00444391 0.00562106 0.00690666
-0.00449545 0.00562065 0.00692683
-0.00454712 0.00562043 0.00695291
-0.00537687 0.00561970 0.00745293
-0.00542853 0.00561929 0.00747316
-0.00568748 0.00561801 0.00759798
-0.00573916 0.00561760 0.00761823
-0.00620975 0.00561973 0.00797810
-0.00626132 0.00561913 0.00799246
-0.00631290 0.00561852 0.00800683
-0.01175426 0.00562700 0.01168510
-0.01180571 0.00562599 0.01168741
-0.01185753 0.00562519 0.01169582
-0.01190970 0.00562458 0.01171035
-0.01196077 0.00562338 0.01170655
-0.01201221 0.00562237 0.01170884
0.01298706 0.00586623 0.00491193
0.01213260 0.00582139 0.00409634
0.01207908 0.00581998 0.00408745
0.01059196 0.00578393 0.00393790
0.00797984 0.00569867 0.00301199
0.00792801 0.00569768 0.00301479
0.00787698 0.00569727 0.00303482
0.00782516 0.00569628 0.00303762
0.00777282 0.00569490 0.00302894
0.00745783 0.00568565 0.00294837
0.00740609 0.00568466 0.00295119
0.00735486 0.00568406 0.00296545
0.00730289 0.00568288 0.00296253
0.00725092 0.00568169 0.00295961
0.00719897 0.00568051 0.00295670
0.00714775 0.00567991 0.00297096
0.00709653 0.00567931 0.00298522
0.00704507 0.00567852 0.00299376
0.00699385 0.00567792 0.00300802
0.00694239 0.00567712 0.00301655
0.00689071 0.00567614 0.00301936
0.00683880 0.00567495 0.00301644
0.00678736 0.00567416 0.00302497
0.00616089 0.00565593 0.00286993
0.00610935 0.00565494 0.00287274
0.00605824 0.00565435 0.00288697
0.00600692 0.00565355 0.00289549
0.00595561 0.00565276 0.00290401
0.00590430 0.00565197 0.00291252
0.00585319 0.00565137 0.00292675
0.00580188 0.00565058 0.00293528
0.00575058 0.00564979 0.00294380
0.00569967 0.00564939 0.00296374
0.00564837 0.00564859 0.00297226
0.00559727 0.00564800 0.00298649
0.00554616 0.00564740 0.00300071
0.00549506 0.00564680 0.00301494
0.00544376 0.00564601 0.00302345
0.00539265 0.00564541 0.00303768
0.00534155 0.00564481 0.00305191
0.00529045 0.00564421 0.00306614
0.00523934 0.00564362 0.00308037
0.00518824 0.00564302 0.00309458
0.00482363 0.00563094 0.00295997
0.00477210 0.00562976 0.00295706
0.00472008 0.00562801 0.00293705
0.00466889 0.00562723 0.00294554
0.00461787 0.00562663 0.00295976
0.00456669 0.00562584 0.00296825
0.00451567 0.00562524 0.00298247
0.00446449 0.00562445 0.00299098
0.00436215 0.00562287 0.00300796
0.00431113 0.00562228 0.00302218
