ply
format ascii 1.0
element vertex 1411
property float x
property float y
property float z
end_header
-0.01046306 0.00055819 0.02440245
-0.01046009 0.00055768 0.02445354
-0.01045105 0.00055726 0.02450459
-0.01044202 0.00055685 0.02455563
-0.01042689 0.00055654 0.02460665
-0.01040567 0.00055634 0.02465763
-0.01040272 0.00055583 0.02470869
-0.01038150 0.00055562 0.02475968
-0.01037247 0.00055521 0.02481072
-0.01035735 0.00055490 0.02486173
-0.01035753 0.00055377 0.02496384
-0.01038499 0.00055275 0.02501495
-0.01039422 0.00055203 0.02506600
-0.00964156 0.00053599 0.02766601
-0.00917760 0.00053083 0.02884061
-0.00915633 0.00053062 0.02889174
-0.00914121 0.00053031 0.02894275
-0.00912608 0.00053000 0.02899376
-0.00911096 0.00052969 0.02904478
-0.00908971 0.00052949 0.02909590
-0.00908071 0.00052908 0.02914680
-0.00579955 0.00056980 0.03044651
-0.00571278 0.00056896 0.03065441
-0.00571010 0.00056844 0.03070587
-0.00559595 0.00055561 0.03204309
-0.00558062 0.00055530 0.03209482
-0.00557795 0.00055478 0.03214611
-0.00557894 0.00055364 0.03224846
-0.00558257 0.00055301 0.03229950
-0.00557357 0.00055260 0.03235098
-0.00555190 0.00055239 0.03240292
-0.00554924 0.00055187 0.03245417
-0.00551490 0.00055186 0.03250658
-0.00551224 0.00055134 0.03255782
-0.00554414 0.00054688 0.03291441
-0.00552882 0.00054657 0.03296608
-0.00552616 0.00054605 0.03301726
-0.00551084 0.00054573 0.03306893
-0.00549552 0.00054542 0.03312060
-0.00548020 0.00054511 0.03317227
-0.00545856 0.00054490 0.03322420
-0.00545588 0.00054438 0.03327535
-0.00544056 0.00054407 0.03332702
-0.00543790 0.00054355 0.03337817
-0.00542891 0.00054313 0.03342957
-0.00541359 0.00054282 0.03348123
-0.00540459 0.00054240 0.03353263
-0.00538927 0.00054209 0.03358429
-0.00537395 0.00054178 0.03363595
-0.00535865 0.00054147 0.03368761
-0.00534333 0.00054115 0.03373927
-0.00532168 0.00054094 0.03379121
-0.00529370 0.00054084 0.03384342
-0.00525939 0.00054084 0.03389592
-0.00523773 0.00054063 0.03394787
-0.00522240 0.00054031 0.03399954
-0.00521976 0.00053979 0.03405065
-0.00519176 0.00053969 0.03410289
-0.00516377 0.00053958 0.03415513
-0.00514846 0.00053927 0.03420681
-0.00513312 0.00053896 0.03425848
-0.00511780 0.00053864 0.03431016
-0.00494926 0.00053520 0.03487860
-0.00495297 0.00053458 0.03492934
-0.00496301 0.00053386 0.03497976
-0.00496039 0.00053334 0.03503080
-0.00495775 0.00053282 0.03508182
-0.00493608 0.00053261 0.03513380
-0.00263278 0.00054678 0.03735390
0.01035473 0.00071706 0.04167475
0.01037112 0.00071672 0.04173006
0.01038752 0.00071639 0.04178536
0.01039658 0.00071594 0.04184008
0.01041298 0.00071560 0.04189538
0.01042204 0.00071515 0.04195011
-0.00827935 0.00059415 0.01954354
-0.00827648 0.00059363 0.01959594
-0.00820512 0.00059310 0.01975119
-0.00816171 0.00059269 0.01985484
-0.00814629 0.00059237 0.01990685
-0.00813715 0.00059195 0.01995905
-0.00811887 0.00059111 0.02006344
-0.00811601 0.00059059 0.02011580
-0.00809431 0.00059038 0.02016763
-0.00807261 0.00059017 0.02021947
-0.00806975 0.00058964 0.02027182
-0.00806688 0.00058912 0.02032417
-0.00806403 0.00058859 0.02037651
-0.01050596 0.00050931 0.02394160
-0.01051533 0.00050747 0.02409514
-0.01050629 0.00050707 0.02414621
-0.01049724 0.00050666 0.02419728
-0.01048818 0.00050625 0.02424835
-0.01047914 0.00050584 0.02429941
-0.01044576 0.00050583 0.02435033
-0.01044279 0.00050532 0.02440142
-0.01043986 0.00050481 0.02445252
-0.01042472 0.00050450 0.02450354
-0.01042177 0.00050399 0.02455463
-0.01040664 0.00050368 0.02460564
-0.01038542 0.00050348 0.02465663
-0.01038247 0.00050297 0.02470770
-0.01036733 0.00050266 0.02475872
-0.01035221 0.00050235 0.02480973
-0.01033708 0.00050204 0.02486075
-0.01033413 0.00050153 0.02491181
-0.01033118 0.00050102 0.02496285
-0.01031920 0.00050010 0.02506492
-0.01030408 0.00049979 0.02511592
-0.01033175 0.00049766 0.02526903
-0.00963956 0.00048286 0.02766510
-0.00922422 0.00047798 0.02873736
-0.00918172 0.00047757 0.02883959
-0.00916660 0.00047726 0.02889060
-0.00914533 0.00047705 0.02894172
-0.00913021 0.00047674 0.02899273
-0.00911509 0.00047643 0.02904374
-0.00909996 0.00047612 0.02909476
-0.00909097 0.00047571 0.02914565
-0.00567004 0.00051507 0.03070598
-0.00555888 0.00049891 0.03235051
-0.00553723 0.00049870 0.03240245
-0.00552821 0.00049828 0.03245393
-0.00548758 0.00049838 0.03250658
-0.00548489 0.00049786 0.03255783
-0.00544423 0.00049796 0.03261049
-0.00546688 0.00049703 0.03266079
-0.00553580 0.00049313 0.03291373
-0.00552048 0.00049282 0.03296541
-0.00550516 0.00049250 0.03301708
-0.00549616 0.00049209 0.03306850
-0.00548717 0.00049167 0.03311993
-0.00546552 0.00049146 0.03317185
-0.00545020 0.00049115 0.03322352
-0.00544122 0.00049074 0.03327494
-0.00542590 0.00049042 0.03332661
-0.00541690 0.00049001 0.03337802
-0.00540790 0.00048960 0.03342943
-0.00539258 0.00048928 0.03348110
-0.00538360 0.00048887 0.03353250
-0.00536828 0.00048856 0.03358416
-0.00535296 0.00048824 0.03363583
-0.00533131 0.00048803 0.03368777
-0.00532232 0.00048762 0.03373916
-0.00529434 0.00048751 0.03379138
-0.00527269 0.00048730 0.03384332
-0.00524469 0.00048719 0.03389554
-0.00522304 0.00048698 0.03394750
-0.00521405 0.00048656 0.03399889
-0.00520505 0.00048615 0.03405029
-0.00518340 0.00048594 0.03410225
-0.00516175 0.00048573 0.03415420
-0.00514643 0.00048541 0.03420588
-0.00513111 0.00048510 0.03425756
-0.00510944 0.00048489 0.03430953
-0.00493826 0.00048094 0.03492904
-0.00494832 0.00048022 0.03497947
-0.00495201 0.00047960 0.03503019
-0.00260086 0.00049351 0.03730360
-0.00091566 0.00050947 0.03838524
-0.00092401 0.00050821 0.03848761
-0.00094791 0.00050727 0.03853747
0.01029862 0.00066088 0.04145313
0.01031502 0.00066054 0.04150843
0.01035689 0.00065942 0.04167376
0.01038061 0.00065920 0.04172965
0.01039700 0.00065887 0.04178495
0.01040608 0.00065842 0.04183967
0.01041514 0.00065797 0.04189439
0.01042420 0.00065752 0.04194912
-0.00827104 0.00054006 0.01954242
-0.00825563 0.00053974 0.01959443
-0.00824647 0.00053932 0.01964662
-0.00820307 0.00053890 0.01975026
-0.00817510 0.00053879 0.01980189
-0.00815339 0.00053858 0.01985371
-0.00813797 0.00053827 0.01990573
-0.00812884 0.00053785 0.01995794
-0.00811970 0.00053743 0.02001013
-0.00811398 0.00053639 0.02011487
-0.00806428 0.00053607 0.02021836
-0.00806142 0.00053555 0.02027071
-0.00805229 0.00053513 0.02032290
-0.01049821 0.00045399 0.02414526
-0.01048915 0.00045358 0.02419633
-0.01048011 0.00045317 0.02424740
-0.01046498 0.00045286 0.02429842
-0.01043768 0.00045275 0.02434938
-0.01042864 0.00045234 0.02440044
-0.01041959 0.00045194 0.02445150
-0.01040445 0.00045163 0.02450253
-0.01040150 0.00045112 0.02455361
-0.01038638 0.00045081 0.02460464
-0.01036516 0.00045060 0.02465563
-0.01035611 0.00045019 0.02470668
-0.01034099 0.00044989 0.02475771
-0.01033196 0.00044948 0.02480876
-0.01031683 0.00044917 0.02485978
-0.01031388 0.00044866 0.02491084
-0.01031701 0.00044806 0.02496191
-0.01030797 0.00044765 0.02501294
-0.00963756 0.00042973 0.02766418
-0.00944974 0.00042724 0.02817450
-0.00946519 0.00042644 0.02822505
-0.00930142 0.00042466 0.02863361
-0.00925571 0.00042484 0.02868513
-0.00922833 0.00042473 0.02873634
-0.00921322 0.00042442 0.02878735
-0.00918585 0.00042431 0.02883857
-0.00916460 0.00042410 0.02888968
-0.00914948 0.00042379 0.02894070
-0.00913435 0.00042348 0.02899170
-0.00911923 0.00042317 0.02904272
-0.00910410 0.00042286 0.02909372
-0.00566685 0.00046611 0.03024215
-0.00551622 0.00044510 0.03240221
-0.00550722 0.00044469 0.03245370
-0.00546655 0.00044478 0.03250635
-0.00546387 0.00044426 0.03255760
-0.00543587 0.00044415 0.03260980
-0.00545852 0.00044324 0.03266010
-0.00552113 0.00043947 0.03291329
-0.00551213 0.00043906 0.03296473
-0.00550313 0.00043865 0.03301615
-0.00548150 0.00043844 0.03306808
-0.00547250 0.00043802 0.03311950
-0.00545718 0.00043771 0.03317118
-0.00544184 0.00043740 0.03322285
-0.00543286 0.00043699 0.03327427
-0.00541753 0.00043668 0.03332594
-0.00540856 0.00043626 0.03337736
-0.00539955 0.00043585 0.03342877
-0.00538424 0.00043554 0.03348044
-0.00536892 0.00043522 0.03353211
-0.00535360 0.00043491 0.03358378
-0.00534460 0.00043450 0.03363517
-0.00532295 0.00043429 0.03368711
-0.00531396 0.00043387 0.03373851
-0.00528598 0.00043376 0.03379072
-0.00526431 0.00043355 0.03384267
-0.00523634 0.00043343 0.03389490
-0.00521468 0.00043322 0.03394686
-0.00520569 0.00043281 0.03399825
-0.00519671 0.00043240 0.03404965
-0.00517504 0.00043218 0.03410161
-0.00515972 0.00043187 0.03415328
-0.00513807 0.00043166 0.03420525
-0.00512275 0.00043135 0.03425692
-0.00261927 0.00044054 0.03714786
-0.00261030 0.00044012 0.03719961
-0.00254199 0.00043896 0.03740850
-0.00252654 0.00043865 0.03746063
-0.00088727 0.00045518 0.03838602
-0.00089803 0.00045445 0.03843679
-0.00092614 0.00045290 0.03853784
0.01030812 0.00060335 0.04145270
0.01032451 0.00060302 0.04150800
0.01034091 0.00060268 0.04156331
0.01035731 0.00060235 0.04161862
0.01037371 0.00060202 0.04167392
0.01039010 0.00060168 0.04172922
0.01041384 0.00060146 0.04178510
0.01042290 0.00060101 0.04183983
0.01044104 0.00060012 0.04194928
0.01046476 0.00059990 0.04200516
-0.00830272 0.00048700 0.01938505
-0.00829357 0.00048659 0.01943726
-0.00827189 0.00048637 0.01948907
-0.00826901 0.00048585 0.01954148
-0.00825359 0.00048554 0.01959349
-0.00821020 0.00048511 0.01969712
-0.00820103 0.00048470 0.01974933
-0.00817306 0.00048459 0.01980096
-0.00815135 0.00048437 0.01985278
-0.00813593 0.00048406 0.01990480
-0.00812680 0.00048364 0.01995700
-0.00811766 0.00048323 0.02000920
-0.00810565 0.00048229 0.02011376
-0.00807767 0.00048218 0.02016542
-0.00806224 0.00048187 0.02021743
-0.00805311 0.00048145 0.02026961
-0.01051725 0.00040212 0.02399106
-0.01049605 0.00040191 0.02404205
-0.01048404 0.00040100 0.02414425
-0.01047498 0.00040059 0.02419533
-0.01046595 0.00040019 0.02424641
-0.01045081 0.00039988 0.02429743
-0.01042351 0.00039976 0.02434839
-0.01042056 0.00039926 0.02439949
-0.01040542 0.00039895 0.02445052
-0.01039030 0.00039864 0.02450155
-0.01038733 0.00039814 0.02455264
-0.01037221 0.00039783 0.02460367
-0.01035099 0.00039762 0.02465466
-0.01034804 0.00039712 0.02470575
-0.01033290 0.00039681 0.02475677
-0.01031777 0.00039650 0.02480779
-0.01030265 0.00039619 0.02485882
-0.01029970 0.00039569 0.02490989
-0.01029675 0.00039518 0.02496094
-0.01029380 0.00039468 0.02501199
-0.01028477 0.00039428 0.02506302
-0.00943550 0.00037429 0.02817376
-0.00945707 0.00037341 0.02822423
-0.00944807 0.00037300 0.02827512
-0.00929943 0.00037152 0.02863270
-0.00926594 0.00037150 0.02868400
-0.00923246 0.00037148 0.02873532
-0.00921735 0.00037117 0.02878633
-0.00916259 0.00037094 0.02888877
-0.00914747 0.00037063 0.02893979
-0.00913234 0.00037032 0.02899079
-0.00911109 0.00037011 0.02904191
-0.00563310 0.00041257 0.03024201
-0.00566214 0.00041156 0.03029276
-0.00565676 0.00041053 0.03039582
-0.00567941 0.00040962 0.03044667
-0.00548251 0.00039169 0.03240242
-0.00547352 0.00039128 0.03245392
-0.00544551 0.00039117 0.03250611
-0.00543018 0.00039085 0.03255784
-0.00541218 0.00039003 0.03266083
-0.00549746 0.00038540 0.03296429
-0.00548847 0.00038499 0.03301573
-0.00547314 0.00038468 0.03306741
-0.00546415 0.00038427 0.03311883
-0.00544250 0.00038405 0.03317076
-0.00542718 0.00038374 0.03322244
-0.00541818 0.00038333 0.03327386
-0.00540918 0.00038292 0.03332528
-0.00540018 0.00038251 0.03337669
-0.00538486 0.00038220 0.03342836
-0.00537588 0.00038179 0.03347977
-0.00536689 0.00038138 0.03353118
-0.00534524 0.00038116 0.03358312
-0.00532992 0.00038085 0.03363479
-0.00530826 0.00038063 0.03368672
-0.00529929 0.00038022 0.03373813
-0.00527762 0.00038001 0.03379007
-0.00525597 0.00037979 0.03384203
-0.00523432 0.00037958 0.03389397
-0.00521266 0.00037936 0.03394593
-0.00520366 0.00037895 0.03399732
-0.00519468 0.00037854 0.03404872
-0.00517303 0.00037833 0.03410068
-0.00515136 0.00037811 0.03415265
-0.00513604 0.00037780 0.03420433
-0.00511438 0.00037759 0.03425628
-0.00263269 0.00038653 0.03709480
-0.00261076 0.00038632 0.03714731
-0.00260177 0.00038590 0.03719905
-0.00257985 0.00038568 0.03725158
-0.00086549 0.00040076 0.03838638
-0.00088282 0.00039994 0.03843672
0.01030855 0.00054627 0.04139753
0.01031761 0.00054583 0.04145227
0.01033401 0.00054549 0.04150758
0.01035041 0.00054516 0.04156289
0.01036681 0.00054482 0.04161819
0.01038320 0.00054449 0.04167350
0.01040694 0.00054427 0.04172938
0.01043068 0.00054404 0.04178526
0.01043241 0.00054349 0.04183942
0.01044147 0.00054304 0.04189415
0.01045787 0.00054271 0.04194945
-0.00832525 0.00043353 0.01927988
-0.00830355 0.00043331 0.01933169
-0.00830069 0.00043280 0.01938411
-0.00828527 0.00043248 0.01943613
-0.00826356 0.00043227 0.01948794
-0.00826068 0.00043175 0.01954035
-0.00820187 0.00043101 0.01969600
-0.00819273 0.00043059 0.01974821
-0.00816475 0.00043048 0.01979984
-0.00814305 0.00043027 0.01985167
-0.00813389 0.00042985 0.01990387
-0.00811847 0.00042954 0.01995588
-0.00810933 0.00042912 0.02000808
-0.00809734 0.00042819 0.02011265
-0.00806935 0.00042808 0.02016431
-0.01046969 0.00034910 0.02404094
-0.01048499 0.00034831 0.02409221
-0.01046690 0.00034751 0.02419437
-0.01045786 0.00034710 0.02424544
-0.01044272 0.00034679 0.02429648
-0.01041542 0.00034668 0.02434743
-0.01041245 0.00034618 0.02439854
-0.01039733 0.00034587 0.02444957
-0.01037611 0.00034565 0.02450057
-0.01037316 0.00034515 0.02455167
-0.01035804 0.00034485 0.02460269
-0.01034291 0.00034454 0.02465373
-0.01033387 0.00034413 0.02470478
-0.01031873 0.00034382 0.02475581
-0.01030360 0.00034351 0.02480683
-0.01028848 0.00034321 0.02485786
-0.01027943 0.00034280 0.02490891
-0.01027039 0.00034240 0.02495995
-0.01026134 0.00034199 0.02501100
-0.01024622 0.00034169 0.02506202
-0.01023720 0.00034128 0.02511306
-0.00959082 0.00032414 0.02766285
-0.00958791 0.00032364 0.02771370
-0.00955446 0.00032362 0.02776491
-0.00955157 0.00032312 0.02781575
-0.00951812 0.00032309 0.02786697
-0.00950910 0.00032269 0.02791789
-0.00951843 0.00032200 0.02796856
-0.00947276 0.00032217 0.02801996
-0.00944540 0.00032205 0.02807111
-0.00941195 0.00032203 0.02812237
-0.00940295 0.00032162 0.02817329
-0.00941838 0.00032084 0.02822384
-0.00940938 0.00032044 0.02827474
-0.00942484 0.00031966 0.02832528
-0.00928520 0.00031856 0.02863199
-0.00927007 0.00031825 0.02868299
-0.00923659 0.00031823 0.02873431
-0.00921535 0.00031801 0.02878541
-0.00918798 0.00031790 0.02883663
-0.00913034 0.00031716 0.02898988
-0.00561839 0.00035871 0.03024140
-0.00564742 0.00035772 0.03029215
-0.00565742 0.00035701 0.03034336
-0.00566472 0.00035580 0.03044608
-0.00545517 0.00033817 0.03240240
-0.00541815 0.00033764 0.03250611
-0.00540280 0.00033733 0.03255785
-0.00536211 0.00033740 0.03261052
-0.00548279 0.00033174 0.03296386
-0.00547378 0.00033133 0.03301530
-0.00545214 0.00033111 0.03306723
-0.00544946 0.00033061 0.03311840
-0.00543414 0.00033029 0.03317008
-0.00541881 0.00032998 0.03322176
-0.00540984 0.00032957 0.03327319
-0.00539450 0.00032926 0.03332487
-0.00538552 0.00032885 0.03337628
-0.00537652 0.00032844 0.03342770
-0.00536120 0.00032813 0.03347937
-0.00535220 0.00032772 0.03353078
-0.00533055 0.00032750 0.03358272
-0.00532156 0.00032710 0.03363413
-0.00529991 0.00032688 0.03368607
-0.00528458 0.00032657 0.03373774
-0.00526294 0.00032635 0.03378969
-0.00524761 0.00032604 0.03384138
-0.00521961 0.00032592 0.03389360
-0.00520429 0.00032560 0.03394528
-0.00518896 0.00032529 0.03399696
-0.00517999 0.00032488 0.03404836
-0.00515832 0.00032467 0.03410032
-0.00514300 0.00032435 0.03415199
-0.00512134 0.00032414 0.03420397
-0.00510602 0.00032382 0.03425565
-0.00508435 0.00032361 0.03430763
-0.00506903 0.00032329 0.03435931
-0.00263065 0.00033221 0.03709387
-0.00260223 0.00033209 0.03714676
-0.00259326 0.00033167 0.03719851
-0.00257131 0.00033146 0.03725103
-0.00086343 0.00034604 0.03838544
-0.00088078 0.00034523 0.03843578
0.01021232 0.00049064 0.04106468
0.01022139 0.00049020 0.04111944
0.01030897 0.00048918 0.04134234
0.01032536 0.00048885 0.04139766
0.01033445 0.00048841 0.04145241
0.01034351 0.00048796 0.04150715
0.01035991 0.00048763 0.04156246
0.01038365 0.00048740 0.04161834
0.01040004 0.00048707 0.04167365
0.01042376 0.00048684 0.04172954
0.01044750 0.00048662 0.04178542
0.01044925 0.00048606 0.04183958
0.01045097 0.00048551 0.04189374
0.01046003 0.00048507 0.04194846
-0.00830439 0.00037961 0.01927833
-0.00828896 0.00037930 0.01933035
-0.00828609 0.00037879 0.01938277
-0.00827694 0.00037837 0.01943499
-0.00825524 0.00037816 0.01948681
-0.00825238 0.00037765 0.01953922
-0.00823696 0.00037733 0.01959123
-0.00822154 0.00037702 0.01964325
-0.00819355 0.00037690 0.01969487
-0.00818442 0.00037649 0.01974708
-0.00815015 0.00037647 0.01979852
-0.00813472 0.00037615 0.01985054
-0.00812559 0.00037574 0.01990275
-0.00811017 0.00037542 0.01995477
-0.00810102 0.00037501 0.02000697
-0.00809817 0.00037450 0.02005935
-0.00808902 0.00037409 0.02011154
-0.01047082 0.00029531 0.02409120
-0.01046178 0.00029491 0.02414230
-0.01042856 0.00029380 0.02429549
-0.01040733 0.00029358 0.02434648
-0.01038316 0.00029287 0.02444859
-0.01036803 0.00029256 0.02449962
-0.01036507 0.00029207 0.02455072
-0.01034994 0.00029176 0.02460175
-0.01032872 0.00029154 0.02465276
-0.01031968 0.00029114 0.02470381
-0.01030454 0.00029083 0.02475484
-0.01028942 0.00029052 0.02480588
-0.01027428 0.00029021 0.02485691
-0.01026526 0.00028981 0.02490796
-0.01025012 0.00028950 0.02495899
-0.01024108 0.00028910 0.02501003
-0.01022595 0.00028879 0.02506106
-0.01021083 0.00028848 0.02511209
-0.00954606 0.00027165 0.02766243
-0.00953704 0.00027125 0.02771336
-0.00950357 0.00027122 0.02776459
-0.00949457 0.00027082 0.02781552
-0.00946721 0.00027069 0.02786667
-0.00947656 0.00027001 0.02791737
-0.00947365 0.00026952 0.02796821
-0.00944020 0.00026949 0.02801945
-0.00941895 0.00026927 0.02807054
-0.00939159 0.00026915 0.02812172
-0.00938870 0.00026866 0.02817255
-0.00938582 0.00026816 0.02822337
-0.00937070 0.00026785 0.02827438
-0.00938615 0.00026708 0.02832491
-0.00940773 0.00026622 0.02837535
-0.00937426 0.00026619 0.02842661
-0.00930409 0.00026671 0.02847848
-0.00931956 0.00026594 0.02852899
-0.00926159 0.00026628 0.02858069
-0.00925872 0.00026579 0.02863149
-0.00924359 0.00026548 0.02868249
-0.00921622 0.00026536 0.02873371
-0.00920109 0.00026505 0.02878471
-0.00917986 0.00026483 0.02883583
-0.00916474 0.00026452 0.02888683
-0.00914347 0.00026431 0.02893796
-0.00912835 0.00026400 0.02898896
-0.00911322 0.00026369 0.02903997
-0.00909810 0.00026338 0.02909098
-0.00561635 0.00030466 0.03024047
-0.00563905 0.00030377 0.03029138
-0.00565635 0.00030187 0.03044531
-0.00544046 0.00028444 0.03240193
-0.00542511 0.00028413 0.03245367
-0.00539711 0.00028401 0.03250588
-0.00539443 0.00028350 0.03255715
-0.00532837 0.00028395 0.03261077
-0.00536375 0.00028288 0.03266063
-0.00543112 0.00027753 0.03306705
-0.00541313 0.00027672 0.03316992
-0.00540146 0.00027581 0.03327252
-0.00538614 0.00027550 0.03332420
-0.00537083 0.00027518 0.03337588
-0.00536184 0.00027478 0.03342729
-0.00534652 0.00027446 0.03347898
-0.00534385 0.00027396 0.03353012
-0.00531587 0.00027384 0.03358233
-0.00530687 0.00027343 0.03363374
-0.00528523 0.00027321 0.03368568
-0.00526990 0.00027290 0.03373737
-0.00524823 0.00027268 0.03378931
-0.00523292 0.00027237 0.03384100
-0.00521758 0.00027206 0.03389268
-0.00519593 0.00027184 0.03394463
-0.00518061 0.00027153 0.03399631
-0.00517161 0.00027112 0.03404772
-0.00514996 0.00027090 0.03409968
-0.00513464 0.00027059 0.03415136
-0.00511298 0.00027037 0.03420334
-0.00510399 0.00026996 0.03425472
-0.00507598 0.00026984 0.03430698
-0.00506066 0.00026953 0.03435867
-0.00283888 0.00027967 0.03661972
-0.00263759 0.00027829 0.03704119
-0.00262861 0.00027788 0.03709294
-0.00260019 0.00027776 0.03714583
-0.00259122 0.00027735 0.03719757
-0.00256927 0.00027713 0.03725009
-0.00254735 0.00027691 0.03730262
0.01022005 0.00043365 0.04101002
0.01022913 0.00043321 0.04106479
0.01023822 0.00043277 0.04111955
0.01025461 0.00043244 0.04117487
0.01027833 0.00043221 0.04123073
0.01030205 0.00043198 0.04128660
0.01032579 0.00043175 0.04134247
0.01034220 0.00043142 0.04139779
0.01034392 0.00043087 0.04145198
0.01035301 0.00043043 0.04150672
0.01037674 0.00043020 0.04156261
0.01039313 0.00042987 0.04161792
0.01040953 0.00042953 0.04167323
0.01043327 0.00042930 0.04172911
0.01045701 0.00042908 0.04178500
0.01045874 0.00042853 0.04183917
0.01046048 0.00042798 0.04189333
0.01046953 0.00042754 0.04194805
-0.00826810 0.00032538 0.01932880
-0.00826524 0.00032487 0.01938123
-0.00824980 0.00032455 0.01943325
-0.00822811 0.00032434 0.01948508
-0.00823152 0.00032373 0.01953769
-0.00821608 0.00032342 0.01958971
-0.00820066 0.00032310 0.01964173
-0.00816640 0.00032308 0.01969317
-0.00816354 0.00032257 0.01974557
-0.00813556 0.00032245 0.01979721
-0.00812013 0.00032213 0.01984924
-0.00811099 0.00032172 0.01990145
-0.00810184 0.00032131 0.01995365
-0.00809897 0.00032080 0.02000603
-0.00808984 0.00032039 0.02005824
-0.00808071 0.00031998 0.02011043
-0.00851800 0.00030941 0.02048900
-0.00850886 0.00030900 0.02054103
-0.01041716 0.00024237 0.02414107
-0.01045683 0.00024123 0.02419250
-0.01042342 0.00024120 0.02424341
-0.01041438 0.00024080 0.02429449
-0.01039316 0.00024058 0.02434549
-0.01039630 0.00023999 0.02439664
-0.01036899 0.00023987 0.02444761
-0.01035385 0.00023956 0.02449865
-0.01035090 0.00023907 0.02454974
-0.01033577 0.00023876 0.02460078
-0.01032063 0.00023845 0.02465181
-0.01031159 0.00023805 0.02470287
-0.01029646 0.00023774 0.02475391
-0.01028132 0.00023743 0.02480494
-0.01026620 0.00023712 0.02485597
-0.01025106 0.00023682 0.02490700
-0.01024202 0.00023641 0.02495806
-0.01023300 0.00023601 0.02500910
-0.01021177 0.00023580 0.02506012
-0.01020274 0.00023540 0.02511116
-0.00957720 0.00021961 0.02750864
-0.00954084 0.00021908 0.02761072
-0.00953794 0.00021859 0.02766159
-0.00952281 0.00021828 0.02771260
-0.00948034 0.00021785 0.02781476
-0.00946233 0.00021705 0.02791661
-0.00945944 0.00021655 0.02796746
-0.00943208 0.00021643 0.02801862
-0.00941695 0.00021612 0.02806963
-0.00939572 0.00021590 0.02812071
-0.00938059 0.00021559 0.02817172
-0.00937158 0.00021519 0.02822264
-0.00935645 0.00021488 0.02827364
-0.00934745 0.00021449 0.02832455
-0.00936292 0.00021372 0.02837509
-0.00927472 0.00021343 0.02852877
-0.00924447 0.00021282 0.02863078
-0.00922935 0.00021251 0.02868179
-0.00920810 0.00021229 0.02873290
-0.00919297 0.00021198 0.02878390
-0.00917785 0.00021167 0.02883491
-0.00915660 0.00021146 0.02888603
-0.00914147 0.00021115 0.02893704
-0.00912635 0.00021084 0.02898805
-0.00911123 0.00021053 0.02903906
-0.00909610 0.00021022 0.02909007
-0.00908098 0.00020991 0.02914108
-0.00561433 0.00025061 0.03023954
-0.00563702 0.00024973 0.03029045
-0.00540307 0.00023158 0.03235108
-0.00541309 0.00023089 0.03240192
-0.00539775 0.00023058 0.03245367
-0.00536972 0.00023045 0.03250588
-0.00537974 0.00022977 0.03255669
-0.00532635 0.00023001 0.03260984
-0.00535539 0.00022905 0.03265994
-0.00532103 0.00022902 0.03271240
-0.00531837 0.00022852 0.03276366
-0.00531571 0.00022802 0.03281492
-0.00540744 0.00022345 0.03311806
-0.00537312 0.00022341 0.03317051
-0.00537045 0.00022291 0.03322170
-0.00537413 0.00022232 0.03327262
-0.00535247 0.00022210 0.03332456
-0.00535615 0.00022151 0.03337548
-0.00534715 0.00022111 0.03342690
-0.00533183 0.00022079 0.03347858
-0.00532283 0.00022039 0.03352999
-0.00530118 0.00022017 0.03358194
-0.00529218 0.00021976 0.03363335
-0.00526419 0.00021964 0.03368557
-0.00525521 0.00021923 0.03373699
-0.00523987 0.00021892 0.03378866
-0.00522456 0.00021861 0.03384035
-0.00520924 0.00021829 0.03389203
-0.00518757 0.00021807 0.03394399
-0.00517225 0.00021776 0.03399567
-0.00515693 0.00021745 0.03404736
-0.00514160 0.00021713 0.03409904
-0.00511993 0.00021691 0.03415100
-0.00509827 0.00021669 0.03420298
-0.00508295 0.00021638 0.03425466
-0.00504859 0.00021635 0.03430722
-0.00502057 0.00021622 0.03435949
-0.00464368 0.00021742 0.03478532
-0.00463471 0.00021701 0.03483678
-0.00458491 0.00021667 0.03494123
-0.00284331 0.00022527 0.03661841
-0.00272328 0.00022485 0.03683022
-0.00262906 0.00022406 0.03704064
-0.00261360 0.00022375 0.03709277
-0.00259168 0.00022352 0.03714529
-0.00257622 0.00022321 0.03719742
-0.00255428 0.00022299 0.03724995
0.01021490 0.00037590 0.04100849
0.01023129 0.00037557 0.04106380
0.01024038 0.00037513 0.04111856
0.01025678 0.00037480 0.04117388
0.01027317 0.00037446 0.04122918
0.01029690 0.00037423 0.04128506
0.01032063 0.00037400 0.04134092
0.01033702 0.00037367 0.04139623
0.01034610 0.00037323 0.04145099
0.01035517 0.00037279 0.04150573
0.01037890 0.00037256 0.04156161
0.01040263 0.00037233 0.04161750
0.01041169 0.00037189 0.04167224
0.01043543 0.00037166 0.04172812
0.01045917 0.00037143 0.04178401
0.01046090 0.00037088 0.04183818
0.01046264 0.00037034 0.04189233
0.01046437 0.00036980 0.04194648
-0.00829518 0.00030155 0.01637414
-0.00828598 0.00030114 0.01642670
-0.00829570 0.00030043 0.01648016
-0.00824435 0.00027094 0.01937969
-0.00822265 0.00027072 0.01943152
-0.00820096 0.00027050 0.01948334
-0.00819181 0.00027009 0.01953557
-0.00817639 0.00026977 0.01958760
-0.00816095 0.00026946 0.01963963
-0.00813924 0.00026924 0.01969147
-0.00813010 0.00026883 0.01974369
-0.00810839 0.00026861 0.01979552
-0.00809924 0.00026820 0.01984775
-0.00809638 0.00026770 0.01990014
-0.00808096 0.00026738 0.01995217
-0.00808437 0.00026678 0.02000474
-0.00807524 0.00026637 0.02005694
-0.00853135 0.00025567 0.02043621
-0.00849721 0.00025564 0.02048757
-0.00849433 0.00025514 0.02053977
-0.00847271 0.00025492 0.02059148
-0.00843570 0.00025439 0.02069505
-0.01043360 0.00018782 0.02424258
-0.01041238 0.00018761 0.02429358
-0.01039116 0.00018739 0.02434457
-0.01035480 0.00018686 0.02444662
-0.01034576 0.00018646 0.02449769
-0.01034890 0.00018588 0.02454883
-0.01032767 0.00018566 0.02459983
-0.01031254 0.00018535 0.02465087
-0.01030351 0.00018496 0.02470193
-0.01028837 0.00018465 0.02475297
-0.01027933 0.00018425 0.02480403
-0.01026420 0.00018394 0.02485506
-0.01024906 0.00018363 0.02490609
-0.01023394 0.00018332 0.02495712
-0.01021880 0.00018301 0.02500816
-0.01020367 0.00018270 0.02505919
-0.00956908 0.00016654 0.02750779
-0.00954784 0.00016632 0.02755887
-0.00953272 0.00016601 0.02760988
-0.00951470 0.00016521 0.02771175
-0.00948735 0.00016508 0.02776291
-0.00945421 0.00016398 0.02791578
-0.00944521 0.00016358 0.02796671
-0.00942396 0.00016336 0.02801779
-0.00941496 0.00016296 0.02806872
-0.00939372 0.00016275 0.02811980
-0.00936347 0.00016213 0.02822181
-0.00927560 0.00016076 0.02847704
-0.00924535 0.00016015 0.02857906
-0.00923635 0.00015975 0.02862997
-0.00922123 0.00015944 0.02868097
-0.00919998 0.00015922 0.02873209
-0.00919098 0.00015882 0.02878299
-0.00916973 0.00015860 0.02883411
-0.00915460 0.00015830 0.02888512
-0.00913948 0.00015799 0.02893613
-0.00911823 0.00015777 0.02898725
-0.00910310 0.00015746 0.02903826
-0.00560594 0.00019665 0.03023876
-0.00564133 0.00019559 0.03028936
-0.00540638 0.00017864 0.03224754
-0.00537936 0.00017742 0.03240214
-0.00533600 0.00017698 0.03250611
-0.00533967 0.00017639 0.03255717
-0.00532801 0.00017549 0.03265997
-0.00529732 0.00017487 0.03276346
-0.00530101 0.00017428 0.03281448
-0.00529200 0.00017387 0.03286598
-0.00533840 0.00017107 0.03306869
-0.00533043 0.00016959 0.03322230
-0.00532143 0.00016919 0.03327374
-0.00529978 0.00016896 0.03332571
-0.00530978 0.00016829 0.03337637
-0.00530079 0.00016788 0.03342780
-0.00530446 0.00016730 0.03347870
-0.00529547 0.00016689 0.03353013
-0.00528015 0.00016658 0.03358182
-0.00527115 0.00016618 0.03363323
-0.00524950 0.00016596 0.03368519
-0.00524050 0.00016555 0.03373660
-0.00521885 0.00016533 0.03378856
-0.00520353 0.00016502 0.03384025
-0.00519453 0.00016461 0.03389166
-0.00517288 0.00016439 0.03394362
-0.00516388 0.00016399 0.03399502
-0.00514223 0.00016377 0.03404699
-0.00512689 0.00016345 0.03409868
-0.00511158 0.00016314 0.03415037
-0.00508356 0.00016301 0.03420263
-0.00506824 0.00016270 0.03425431
-0.00502118 0.00016284 0.03430746
-0.00499317 0.00016271 0.03435975
-0.00463268 0.00016307 0.03483585
-0.00281540 0.00017134 0.03661896
-0.00260758 0.00017001 0.03704086
-0.00259861 0.00016960 0.03709261
-0.00256121 0.00016906 0.03719726
-0.00253928 0.00016884 0.03724980
-0.00253029 0.00016843 0.03730154
0.01022439 0.00031836 0.04100804
0.01023346 0.00031792 0.04106281
0.01024255 0.00031749 0.04111757
0.01025894 0.00031715 0.04117288
0.01028267 0.00031692 0.04122875
0.01029906 0.00031659 0.04128407
0.01032279 0.00031635 0.04133993
0.01033919 0.00031602 0.04139524
0.01034826 0.00031558 0.04145000
0.01035735 0.00031514 0.04150474
0.01038106 0.00031491 0.04156062
0.01039746 0.00031458 0.04161594
0.01041387 0.00031424 0.04167125
0.01043759 0.00031401 0.04172713
0.01046868 0.00031388 0.04178360
0.01046306 0.00031324 0.04183719
0.01047215 0.00031280 0.04189192
0.01047386 0.00031226 0.04194607
-0.00837009 0.00024978 0.01600584
-0.00832701 0.00024823 0.01621582
-0.00831151 0.00024791 0.01626808
-0.00829601 0.00024760 0.01632034
-0.00829314 0.00024709 0.01637321
-0.00827764 0.00024677 0.01642547
-0.00828736 0.00024608 0.01647893
-0.00829709 0.00024538 0.01653237
-0.00818647 0.00022245 0.01890372
-0.00818007 0.00021656 0.01948181
-0.00813378 0.00021561 0.01963792
-0.00812463 0.00021520 0.01969014
-0.00810921 0.00021489 0.01974218
-0.00809377 0.00021457 0.01979421
-0.00808464 0.00021417 0.01984643
-0.00807549 0.00021376 0.01989865
-0.00806636 0.00021335 0.01995086
-0.00806350 0.00021285 0.02000326
-0.00806692 0.00021226 0.02005583
-0.00851682 0.00020181 0.02043495
-0.00848894 0.00020168 0.02048648
-0.00848606 0.00020118 0.02053868
-0.00846443 0.00020096 0.02059038
-0.00843655 0.00020083 0.02064193
-0.00843367 0.00020033 0.02069412
-0.01025410 0.00014146 0.02383071
-0.01024210 0.00014058 0.02393310
-0.01030016 0.00013920 0.02398481
-0.01038307 0.00013429 0.02434362
-0.01031625 0.00013420 0.02444550
-0.01033159 0.00013345 0.02449672
-0.01034081 0.00013278 0.02454789
-0.01031959 0.00013256 0.02459889
-0.01030445 0.00013226 0.02464993
-0.01029541 0.00013186 0.02470099
-0.01028028 0.00013155 0.02475203
-0.01027125 0.00013115 0.02480309
-0.01025611 0.00013084 0.02485413
-0.01024099 0.00013053 0.02490516
-0.01022585 0.00013023 0.02495619
-0.01005375 0.00012480 0.02572165
-0.00953363 0.00011333 0.02755809
-0.00952461 0.00011294 0.02760903
-0.00952783 0.00011237 0.02765983
-0.00947924 0.00011201 0.02776206
-0.00946411 0.00011170 0.02781308
-0.00944899 0.00011140 0.02786409
-0.00944610 0.00011091 0.02791494
-0.00943097 0.00011060 0.02796595
-0.00941585 0.00011029 0.02801696
-0.00940073 0.00010999 0.02806796
-0.00937948 0.00010976 0.02811906
-0.00936435 0.00010946 0.02817007
-0.00935535 0.00010906 0.02822099
-0.00933410 0.00010884 0.02827209
-0.00931898 0.00010853 0.02832309
-0.00930385 0.00010822 0.02837411
-0.00928260 0.00010800 0.02842521
-0.00926748 0.00010769 0.02847622
-0.00925235 0.00010738 0.02852724
-0.00923723 0.00010708 0.02857825
-0.00922823 0.00010668 0.02862915
-0.00921310 0.00010637 0.02868016
-0.00919798 0.00010606 0.02873117
-0.00918898 0.00010567 0.02878208
-0.00916773 0.00010544 0.02883319
-0.00915261 0.00010514 0.02888420
-0.00913748 0.00010483 0.02893521
-0.00912236 0.00010452 0.02898622
-0.00910723 0.00010421 0.02903723
-0.00550179 0.00012756 0.03183337
-0.00544406 0.00012572 0.03209155
-0.00540704 0.00012519 0.03219530
-0.00539802 0.00012478 0.03224684
-0.00537734 0.00012349 0.03240121
-0.00536200 0.00012317 0.03245296
-0.00534031 0.00012295 0.03250495
-0.00533764 0.00012246 0.03255624
-0.00530328 0.00012241 0.03260870
-0.00531964 0.00012165 0.03265927
-0.00529161 0.00012152 0.03271150
-0.00529529 0.00012094 0.03276253
-0.00529899 0.00012035 0.03281356
-0.00528997 0.00011995 0.03286505
-0.00529367 0.00011937 0.03291606
-0.00529836 0.00011772 0.03306927
-0.00531206 0.00011647 0.03317094
-0.00527874 0.00011535 0.03332555
-0.00528242 0.00011477 0.03337649
-0.00527342 0.00011437 0.03342792
-0.00528345 0.00011370 0.03347857
-0.00526811 0.00011338 0.03353026
-0.00526546 0.00011289 0.03358142
-0.00526281 0.00011240 0.03363258
-0.00523481 0.00011227 0.03368480
-0.00523216 0.00011178 0.03373595
-0.00521682 0.00011146 0.03378763
-0.00520150 0.00011115 0.03383932
-0.00518617 0.00011084 0.03389101
-0.00517085 0.00011053 0.03394270
-0.00514919 0.00011030 0.03399466
-0.00513385 0.00010999 0.03404634
-0.00511220 0.00010977 0.03409832
-0.00509687 0.00010945 0.03415001
-0.00506251 0.00010941 0.03420256
-0.00504717 0.00010910 0.03425425
-0.00501283 0.00010905 0.03430682
-0.00469840 0.00011029 0.03462757
-0.00466394 0.00011024 0.03468025
-0.00464861 0.00010993 0.03473200
-0.00463325 0.00010962 0.03478377
-0.00280689 0.00011712 0.03661840
-0.00260305 0.00011518 0.03709128
-0.00255917 0.00011473 0.03719633
-0.00253724 0.00011450 0.03724886
-0.00253475 0.00011401 0.03730021
-0.00253224 0.00011351 0.03735155
-0.00250383 0.00011338 0.03740448
-0.00249486 0.00011297 0.03745621
0.01022480 0.00026125 0.04095284
0.01024121 0.00026092 0.04100815
0.01025762 0.00026058 0.04106347
0.01025936 0.00026005 0.04111768
0.01027575 0.00025971 0.04117300
0.01029949 0.00025948 0.04122886
0.01032323 0.00025924 0.04128474
0.01033962 0.00025891 0.04134006
0.01035602 0.00025857 0.04139538
0.01035777 0.00025804 0.04144957
0.01037416 0.00025770 0.04150488
0.01039056 0.00025737 0.04156020
0.01041430 0.00025713 0.04161608
0.01042336 0.00025670 0.04167082
0.01045443 0.00025657 0.04172729
0.01048551 0.00025643 0.04178376
0.01047990 0.00025580 0.04183735
0.01048897 0.00025536 0.04189209
0.01048337 0.00025472 0.04194566
-0.00836751 0.00019640 0.01589877
-0.00835833 0.00019600 0.01595136
-0.00834912 0.00019559 0.01600395
-0.00833994 0.00019518 0.01605654
-0.00833073 0.00019477 0.01610911
-0.00832784 0.00019427 0.01616201
-0.00831234 0.00019395 0.01621427
-0.00829685 0.00019363 0.01626653
-0.00827847 0.00019282 0.01637166
-0.00826298 0.00019250 0.01642392
-0.00826640 0.00019191 0.01647709
-0.00827612 0.00019122 0.01653054
-0.00815587 0.00016913 0.01884916
-0.00816558 0.00016844 0.01890213
-0.00812554 0.00016741 0.01905860
-0.00811632 0.00016107 0.01968902
-0.00810088 0.00016075 0.01974105
-0.00808546 0.00016044 0.01979309
-0.00807631 0.00016003 0.01984531
-0.00806718 0.00015963 0.01989754
-0.00805174 0.00015931 0.01994957
-0.00804889 0.00015881 0.02000196
-0.00804603 0.00015832 0.02005436
-0.00851479 0.00014775 0.02043402
-0.00848690 0.00014762 0.02048555
-0.00847776 0.00014722 0.02053758
-0.00846238 0.00014690 0.02058945
-0.00843452 0.00014677 0.02064100
-0.00842538 0.00014637 0.02069303
-0.01025210 0.00008819 0.02382980
-0.01024011 0.00008731 0.02393218
-0.01029205 0.00008604 0.02398384
-0.01036280 0.00008135 0.02434260
-0.01039030 0.00008044 0.02439390
-0.01030521 0.00008060 0.02449567
-0.01033272 0.00007968 0.02454694
-0.01029322 0.00007972 0.02459786
-0.01029027 0.00007924 0.02464896
-0.01028122 0.00007884 0.02470002
-0.01027219 0.00007845 0.02475109
-0.01025707 0.00007814 0.02480213
-0.01024193 0.00007783 0.02485317
-0.01023288 0.00007744 0.02490423
-0.01021774 0.00007713 0.02495526
-0.01003639 0.00007237 0.02566974
-0.01003955 0.00007180 0.02572075
-0.00951940 0.00006034 0.02755730
-0.00951651 0.00005986 0.02760818
-0.00951360 0.00005938 0.02765906
-0.00945888 0.00005911 0.02776137
-0.00944376 0.00005880 0.02781239
-0.00942864 0.00005849 0.02786340
-0.00942574 0.00005801 0.02791427
-0.00941674 0.00005762 0.02796519
-0.00939550 0.00005739 0.02801629
-0.00938649 0.00005700 0.02806721
-0.00935912 0.00005686 0.02811840
-0.00933789 0.00005664 0.02816950
-0.00933500 0.00005616 0.02822034
-0.00931375 0.00005594 0.02827145
-0.00931086 0.00005546 0.02832227
-0.00929573 0.00005515 0.02837328
-0.00927450 0.00005492 0.02842440
-0.00925937 0.00005462 0.02847541
-0.00924425 0.00005431 0.02852642
-0.00922911 0.00005400 0.02857743
-0.00922011 0.00005360 0.02862834
-0.00920498 0.00005330 0.02867935
-0.00918986 0.00005299 0.02873036
-0.00918086 0.00005259 0.02878127
-0.00916573 0.00005228 0.02883228
-0.00915061 0.00005197 0.02888329
-0.00913548 0.00005167 0.02893430
-0.00912036 0.00005136 0.02898531
-0.00556184 0.00009121 0.03003184
-0.00555915 0.00009072 0.03008343
-0.00542936 0.00007196 0.03209106
-0.00540768 0.00007173 0.03214305
-0.00539866 0.00007133 0.03219459
-0.00536264 0.00006972 0.03240073
-0.00532560 0.00006919 0.03250448
-0.00526790 0.00006736 0.03276256
-0.00526524 0.00006687 0.03281384
-0.00525624 0.00006647 0.03286534
-0.00527261 0.00006572 0.03291587
-0.00526360 0.00006532 0.03296736
-0.00529101 0.00006284 0.03317077
-0.00528571 0.00006186 0.03327318
-0.00527038 0.00006155 0.03332488
-0.00527406 0.00006097 0.03337581
-0.00526506 0.00006057 0.03342726
-0.00527507 0.00005991 0.03347790
-0.00525342 0.00005969 0.03352987
-0.00525708 0.00005911 0.03358076
-0.00525443 0.00005862 0.03363191
-0.00522643 0.00005849 0.03368414
-0.00522378 0.00005800 0.03373529
-0.00520846 0.00005769 0.03378697
-0.00519948 0.00005729 0.03383840
-0.00518416 0.00005697 0.03389008
-0.00516248 0.00005675 0.03394204
-0.00514716 0.00005644 0.03399373
-0.00512549 0.00005621 0.03404571
-0.00510383 0.00005598 0.03409768
-0.00507581 0.00005585 0.03414994
-0.00503512 0.00005588 0.03420279
-0.00501978 0.00005557 0.03425449
-0.00472707 0.00005697 0.03452313
-0.00471172 0.00005666 0.03457488
-0.00468364 0.00005652 0.03462725
-0.00465557 0.00005638 0.03467961
-0.00464022 0.00005607 0.03473138
-0.00462487 0.00005576 0.03478315
-0.00461587 0.00005536 0.03483461
-0.00457245 0.00005491 0.03493877
-0.00455073 0.00005468 0.03499085
-0.00279838 0.00006289 0.03661783
-0.00258556 0.00006053 0.03714249
-0.00256363 0.00006030 0.03719501
-0.00254168 0.00006008 0.03724753
-0.00254565 0.00005950 0.03729849
-0.00254317 0.00005901 0.03734983
-0.00251475 0.00005887 0.03740274
0.01022522 0.00020413 0.04089761
0.01023430 0.00020370 0.04095238
0.01025070 0.00020336 0.04100771
0.01026711 0.00020303 0.04106303
0.01027618 0.00020260 0.04111780
0.01029259 0.00020226 0.04117312
0.01031631 0.00020203 0.04122899
0.01033272 0.00020169 0.04128431
0.01034912 0.00020136 0.04133963
0.01036553 0.00020102 0.04139495
0.01036726 0.00020049 0.04144914
0.01038367 0.00020015 0.04150446
0.01040740 0.00019992 0.04156034
0.01042379 0.00019958 0.04161567
0.01044020 0.00019925 0.04167098
0.01046394 0.00019901 0.04172687
0.01049502 0.00019888 0.04178334
0.01049675 0.00019834 0.04183751
0.01050581 0.00019791 0.04189226
0.01050019 0.00019728 0.04194583
-0.00835916 0.00014202 0.01589751
-0.00834365 0.00014170 0.01594979
-0.00833447 0.00014130 0.01600238
-0.00831898 0.00014098 0.01605465
-0.00831608 0.00014048 0.01610756
-0.00831319 0.00013998 0.01616044
-0.00830400 0.00013958 0.01621302
-0.00828850 0.00013926 0.01626529
-0.00827301 0.00013894 0.01631755
-0.00826381 0.00013854 0.01637012
-0.00825176 0.00013763 0.01647555
-0.00825517 0.00013704 0.01652871
-0.00811841 0.00011695 0.01868901
-0.00813441 0.00011619 0.01874225
-0.00813784 0.00011560 0.01879502
-0.00814126 0.00011502 0.01884779
-0.00815725 0.00011425 0.01890098
-0.00816344 0.00010828 0.01947955
-0.00814801 0.00010796 0.01953159
-0.00812002 0.00010783 0.01958324
-0.00811715 0.00010733 0.01963567
-0.00809886 0.00010652 0.01974012
-0.00808342 0.00010621 0.01979216
-0.00807428 0.00010580 0.01984438
-0.00805885 0.00010549 0.01989641
-0.00804971 0.00010509 0.01994864
-0.00804056 0.00010468 0.02000085
-0.00804399 0.00010410 0.02005342
-0.00850649 0.00009379 0.02043292
-0.00848487 0.00009356 0.02048462
-0.00848199 0.00009307 0.02053682
-0.00846662 0.00009276 0.02058869
-0.00843874 0.00009262 0.02064023
-0.00842960 0.00009222 0.02069226
-0.00841422 0.00009191 0.02074413
-0.01019517 0.00003569 0.02382839
-0.01021053 0.00003495 0.02387978
-0.01027787 0.00003296 0.02398283
-0.01033644 0.00002850 0.02434153
-0.01027884 0.00002774 0.02449463
-0.01031245 0.00002675 0.02454593
-0.01026075 0.00002695 0.02459680
-0.01027000 0.00002630 0.02464796
-0.01025191 0.00002551 0.02475010
-0.01002830 0.00001928 0.02566883
-0.01003146 0.00001871 0.02571984
-0.01000415 0.00001857 0.02577088
-0.00949617 0.00000695 0.02760748
-0.00941730 0.00000597 0.02781177
-0.00940216 0.00000566 0.02786279
-0.00939928 0.00000518 0.02791367
-0.00939028 0.00000479 0.02796460
-0.00937514 0.00000448 0.02801562
-0.00936614 0.00000409 0.02806656
-0.00933266 0.00000403 0.02811783
-0.00931139 0.00000381 0.02816893
-0.00931464 0.00000325 0.02821969
-0.00929339 0.00000302 0.02827080
-0.00929050 0.00000255 0.02832164
-0.00928150 0.00000215 0.02837256
-0.00926025 0.00000193 0.02842367
-0.00924513 0.00000162 0.02847468
-0.00923000 0.00000131 0.02852570
-0.00921488 0.00000100 0.02857671
-0.00920586 0.00000061 0.02862763
-0.00919686 0.00000022 0.02867854
-0.00918174 -0.00000009 0.02872956
-0.00917274 -0.00000048 0.02878046
-0.00915761 -0.00000079 0.02883147
-0.00914249 -0.00000110 0.02888249
-0.00565675 0.00003737 0.02987406
-0.00556615 0.00003704 0.03003076
-0.00554442 0.00003681 0.03008280
-0.00554173 0.00003633 0.03013439
-0.00540198 0.00001835 0.03209100
-0.00535491 0.00001847 0.03214387
-0.00533955 0.00001816 0.03219565
-0.00535592 0.00001741 0.03224632
-0.00534691 0.00001701 0.03229786
-0.00533156 0.00001670 0.03234963
-0.00531089 0.00001542 0.03250402
-0.00527385 0.00001488 0.03260778
-0.00524315 0.00001425 0.03271131
-0.00522618 0.00001240 0.03291666
-0.00527999 0.00000854 0.03322130
-0.00527734 0.00000806 0.03327250
-0.00526568 0.00000718 0.03337514
-0.00526305 0.00000669 0.03342633
-0.00527304 0.00000604 0.03347698
-0.00524504 0.00000590 0.03352921
-0.00524874 0.00000533 0.03358010
-0.00524609 0.00000484 0.03363126
-0.00521174 0.00000479 0.03368375
-0.00520909 0.00000430 0.03373491
-0.00519376 0.00000399 0.03378659
-0.00517844 0.00000368 0.03383829
-0.00516945 0.00000328 0.03388971
-0.00514777 0.00000305 0.03394167
-0.00513245 0.00000274 0.03399337
-0.00511079 0.00000251 0.03404534
-0.00508279 0.00000237 0.03409760
-0.00505476 0.00000223 0.03414987
-0.00471868 0.00000312 0.03452250
-0.00470333 0.00000280 0.03457426
-0.00468162 0.00000258 0.03462632
-0.00464718 0.00000252 0.03467900
-0.00463182 0.00000221 0.03473077
-0.00461647 0.00000189 0.03478254
-0.00460750 0.00000149 0.03483399
-0.00459215 0.00000118 0.03488576
-0.00457042 0.00000095 0.03493784
-0.00454870 0.00000073 0.03498992
-0.00276001 0.00000959 0.03656773
-0.00258999 0.00000612 0.03714116
-0.00257453 0.00000580 0.03719329
-0.00255260 0.00000557 0.03724582
-0.00255010 0.00000508 0.03729717
-0.00254112 0.00000468 0.03734890
0.01024204 0.00014667 0.04089770
0.01025112 0.00014624 0.04095249
0.01026753 0.00014590 0.04100781
0.01027660 0.00014547 0.04106259
0.01029301 0.00014514 0.04111791
0.01030941 0.00014480 0.04117323
0.01032582 0.00014447 0.04122856
0.01034221 0.00014413 0.04128387
0.01035862 0.00014380 0.04133920
0.01037502 0.00014347 0.04139452
0.01038410 0.00014303 0.04144928
0.01039316 0.00014260 0.04150404
0.01042423 0.00014246 0.04156049
0.01044063 0.00014213 0.04161581
0.01045704 0.00014179 0.04167113
0.01048078 0.00014155 0.04172703
0.01050451 0.00014131 0.04178292
0.01050624 0.00014079 0.04183710
0.01052265 0.00014045 0.04189242
0.01052438 0.00013992 0.04194659
-0.00835370 0.00008812 0.01584333
-0.00835711 0.00008754 0.01589657
-0.00834161 0.00008722 0.01594885
-0.00833242 0.00008682 0.01600144
-0.00831062 0.00008659 0.01605340
-0.00829512 0.00008628 0.01610567
-0.00829853 0.00008569 0.01615889
-0.00828935 0.00008529 0.01621147
-0.00827385 0.00008497 0.01626373
-0.00826465 0.00008456 0.01631631
-0.00825547 0.00008416 0.01636888
-0.00824627 0.00008375 0.01642144
-0.00824051 0.00008277 0.01652717
-0.00816779 0.00005979 0.01890049
-0.00812146 0.00005885 0.01905674
-0.00812656 0.00005506 0.01942496
-0.00813627 0.00005439 0.01947782
-0.00810826 0.00005426 0.01952946
-0.00809282 0.00005394 0.01958151
-0.00809626 0.00005336 0.01963415
-0.00807510 0.00005207 0.01979103
-0.00806595 0.00005166 0.01984326
-0.00804424 0.00005144 0.01989511
-0.00803509 0.00005103 0.01994733
-0.00802596 0.00005063 0.01999955
-0.00802310 0.00005014 0.02005195
-0.00850447 0.00003974 0.02043199
-0.00848284 0.00003951 0.02048369
-0.00847997 0.00003902 0.02053589
-0.00846459 0.00003871 0.02058776
-0.00843669 0.00003857 0.02063930
-0.00842758 0.00003817 0.02069133
-0.00841220 0.00003785 0.02074320
-0.00839056 0.00003763 0.02079491
-0.00835067 0.00003660 0.02095067
-0.01023610 -0.00001923 0.02393035
-0.01027586 -0.00002029 0.02398191
-0.01031007 -0.00002438 0.02434046
-0.01027998 -0.00002603 0.02454486
-0.01024972 -0.00002665 0.02464696
-0.01002631 -0.00003391 0.02566792
-0.01002337 -0.00003438 0.02571893
-0.01000215 -0.00003461 0.02576997
-0.00948194 -0.00004605 0.02760671
-0.00939694 -0.00004695 0.02781109
-0.00937569 -0.00004718 0.02786219
-0.00936668 -0.00004757 0.02791314
-0.00935768 -0.00004796 0.02796409
-0.00934866 -0.00004835 0.02801503
-0.00933354 -0.00004866 0.02806605
-0.00930616 -0.00004881 0.02811725
-0.00929104 -0.00004912 0.02816828
-0.00928815 -0.00004959 0.02821913
-0.00927302 -0.00004990 0.02827015
-0.00927015 -0.00005037 0.02832100
-0.00926726 -0.00005085 0.02837183
-0.00924601 -0.00005107 0.02842294
-0.00923088 -0.00005138 0.02847396
-0.00922801 -0.00005185 0.02852479
-0.00920674 -0.00005208 0.02857590
-0.00920387 -0.00005255 0.02862672
-0.00919487 -0.00005295 0.02867763
-0.00917974 -0.00005325 0.02872864
-0.00564201 -0.00001652 0.02987342
-0.00564568 -0.00001709 0.02992487
-0.00559221 -0.00001690 0.02997764
-0.00556412 -0.00001704 0.03002982
-0.00554238 -0.00001727 0.03008187
-0.00552700 -0.00001758 0.03013377
-0.00549890 -0.00001773 0.03018597
-0.00550257 -0.00001830 0.03023740
-0.00530948 -0.00003595 0.03224695
-0.00530046 -0.00003635 0.03229851
-0.00529146 -0.00003675 0.03235007
-0.00531787 -0.00003813 0.03245156
-0.00530252 -0.00003844 0.03250333
-0.00529352 -0.00003884 0.03255486
-0.00524010 -0.00003865 0.03260803
-0.00525013 -0.00003930 0.03265885
-0.00522208 -0.00003945 0.03271110
-0.00524096 -0.00004589 0.03332407
-0.00524200 -0.00004694 0.03342619
-0.00525202 -0.00004759 0.03347684
-0.00521767 -0.00004765 0.03352934
-0.00522770 -0.00004830 0.03357998
-0.00523138 -0.00004886 0.03363087
-0.00518437 -0.00004875 0.03368391
-0.00518171 -0.00004923 0.03373507
-0.00516638 -0.00004955 0.03378677
-0.00517008 -0.00005011 0.03383764
-0.00516108 -0.00005051 0.03388906
-0.00513308 -0.00005065 0.03394131
-0.00511774 -0.00005096 0.03399300
-0.00509608 -0.00005119 0.03404498
-0.00507441 -0.00005142 0.03409696
-0.00499932 -0.00005146 0.03420237
-0.00473200 -0.00005051 0.03446981
-0.00471029 -0.00005074 0.03452187
-0.00469494 -0.00005106 0.03457363
-0.00466686 -0.00005120 0.03462600
-0.00463878 -0.00005135 0.03467837
-0.00462979 -0.00005174 0.03472984
-0.00461444 -0.00005206 0.03478161
-0.00459909 -0.00005237 0.03483337
-0.00458375 -0.00005268 0.03488515
-0.00455567 -0.00005283 0.03493753
-0.00454031 -0.00005314 0.03498930
0.01025155 0.00008911 0.04089726
0.01026063 0.00008868 0.04095204
0.01026969 0.00008825 0.04100682
0.01028609 0.00008791 0.04106214
0.01030250 0.00008758 0.04111747
0.01031891 0.00008724 0.04117280
0.01033531 0.00008691 0.04122812
0.01035172 0.00008657 0.04128345
0.01036812 0.00008624 0.04133877
0.01037718 0.00008581 0.04139353
0.01039359 0.00008548 0.04144885
0.01041000 0.00008514 0.04150417
0.01043373 0.00008490 0.04156007
0.01045014 0.00008457 0.04161539
0.01046655 0.00008423 0.04167071
0.01049028 0.00008399 0.04172661
0.01051404 0.00008375 0.04178251
0.01052310 0.00008332 0.04183727
0.01053950 0.00008299 0.04189259
-0.00832985 0.00003341 0.01589436
-0.00831436 0.00003310 0.01594664
-0.00830515 0.00003269 0.01599924
-0.00828335 0.00003246 0.01605120
-0.00826785 0.00003215 0.01610349
-0.00826496 0.00003165 0.01615639
-0.00825576 0.00003125 0.01620898
-0.00823395 0.00003102 0.01626095
-0.00823107 0.00003053 0.01631384
-0.00823450 0.00002995 0.01636703
-0.00822531 0.00002955 0.01641960
-0.00822873 0.00002897 0.01647278
-0.00821954 0.00002857 0.01652534
-0.00814290 0.00000741 0.01874083
-0.00815262 0.00000675 0.01879383
-0.00815317 0.00000569 0.01889911
-0.00811942 0.00000457 0.01905581
-0.00808680 0.00000133 0.01942282
