ply
format ascii 1.0
element vertex 1408
property float x
property float y
property float z
end_header
0.00859101 -0.01084809 0.03472644
0.00863300 -0.01084563 0.03462923
0.00864561 -0.01084489 0.03457648
0.01362565 -0.01055380 0.03243599
0.01364854 -0.01055246 0.03239002
0.01273362 -0.01060562 0.02810362
0.01274978 -0.01060357 0.01171132
0.01277895 -0.01060186 0.01166885
0.01278067 -0.01060176 0.01160861
0.01279885 -0.01060069 0.01155904
0.01282254 -0.01059931 0.01151301
0.01282425 -0.01059920 0.01145277
0.00844552 -0.01091065 0.03500851
0.00845812 -0.01090990 0.03495573
0.00848752 -0.01090818 0.03491123
0.00851132 -0.01090678 0.03486398
0.00853513 -0.01090538 0.03481674
0.00856452 -0.01090366 0.03477227
0.00859390 -0.01090193 0.03472780
0.00863588 -0.01089947 0.03463059
0.00865968 -0.01089807 0.03458338
0.01362830 -0.01060638 0.03243738
0.01644006 -0.01044131 0.02776479
0.01645225 -0.01044059 0.02771375
0.01276903 -0.01065683 0.01172410
0.01279272 -0.01065544 0.01167808
0.01280542 -0.01065469 0.01162495
0.01281261 -0.01065427 0.01156827
0.01283629 -0.01065288 0.01152226
0.00850721 -0.01096104 0.03492087
0.00853661 -0.01095930 0.03487639
0.00855480 -0.01095823 0.03482639
0.00857301 -0.01095717 0.03477639
0.00862618 -0.01095403 0.03468471
0.00865555 -0.01095230 0.03464027
0.00868492 -0.01095058 0.03459583
0.00913584 -0.01092402 0.03393591
0.00915955 -0.01092262 0.03388882
0.00918324 -0.01092123 0.03384174
0.00919583 -0.01092049 0.03378909
0.00920287 -0.01092008 0.03373365
0.01418343 -0.01062641 0.03174488
0.01636614 -0.01049790 0.02801287
0.01637317 -0.01049749 0.02795893
0.01638536 -0.01049677 0.02790789
0.01639757 -0.01049606 0.02785683
0.01641494 -0.01049504 0.02780869
0.01643229 -0.01049402 0.02776054
0.01644965 -0.01049300 0.02771239
0.01646701 -0.01049197 0.02766425
0.01647404 -0.01049156 0.02761031
0.01282088 -0.01070816 0.01157396
0.02288677 -0.01011417 0.01443935
0.02292308 -0.01011203 0.01440553
0.00852129 -0.01101422 0.03492775
0.00854510 -0.01101281 0.03488051
0.00856330 -0.01101174 0.03483051
0.00860527 -0.01100926 0.03473329
0.00864024 -0.01100719 0.03469161
0.00867520 -0.01100513 0.03464993
0.00871015 -0.01100306 0.03460827
0.00902981 -0.01098416 0.03423658
0.00905909 -0.01098244 0.03419225
0.00911063 -0.01097939 0.03415905
0.00913990 -0.01097766 0.03411473
0.00911500 -0.01097915 0.03398438
0.00913870 -0.01097775 0.03393730
0.00916243 -0.01097635 0.03389021
0.00918056 -0.01097528 0.03384034
0.00919871 -0.01097422 0.03379049
0.00920017 -0.01097414 0.03373225
0.00921831 -0.01097307 0.03368239
0.00923088 -0.01097233 0.03362974
0.00906785 -0.01098215 0.03248359
0.01415271 -0.01068084 0.03178654
0.01417553 -0.01067949 0.03174071
0.01419309 -0.01067846 0.03169210
0.01633584 -0.01055194 0.02805389
0.01635320 -0.01055092 0.02800573
0.01635507 -0.01055082 0.02794889
0.01636727 -0.01055010 0.02789783
0.01637946 -0.01054938 0.02784678
0.01639684 -0.01054836 0.02779864
0.01641935 -0.01054703 0.02775338
0.01644188 -0.01054571 0.02770814
0.01646438 -0.01054437 0.02766290
0.01646112 -0.01054458 0.02760314
0.01266924 -0.01077145 0.01208961
0.01276566 -0.01076577 0.01184523
0.01277836 -0.01076502 0.01179212
0.01280375 -0.01076353 0.01168589
0.01282193 -0.01076246 0.01163632
0.01282366 -0.01076237 0.01157610
0.01284732 -0.01076097 0.01153009
0.01287098 -0.01075958 0.01148409
0.02291080 -0.01016407 0.01439767
0.00859557 -0.01106383 0.03478741
0.00862494 -0.01106209 0.03474295
0.00866549 -0.01105968 0.03470404
0.00869484 -0.01105794 0.03465959
0.00879963 -0.01105173 0.03453466
0.00895037 -0.01104278 0.03437377
0.00897966 -0.01104104 0.03432941
0.00902155 -0.01103857 0.03423240
0.00905639 -0.01103650 0.03419084
0.00910236 -0.01103377 0.03415486
0.00913164 -0.01103204 0.03411055
0.00913310 -0.01103196 0.03405233
0.00910674 -0.01103355 0.03398019
0.00912489 -0.01103248 0.03393032
0.00915416 -0.01103074 0.03388602
0.00917231 -0.01102967 0.03383616
0.00918490 -0.01102893 0.03378350
0.00918634 -0.01102886 0.03372526
0.00919893 -0.01102812 0.03367260
0.00921151 -0.01102738 0.03361995
0.01043670 -0.01095467 0.03235786
0.01412551 -0.01073506 0.03188799
0.01414305 -0.01073402 0.03183936
0.01415008 -0.01073362 0.03178518
0.01417817 -0.01073196 0.03174213
0.01419395 -0.01073105 0.03157674
0.01637873 -0.01060170 0.02778858
0.01640643 -0.01060006 0.02774622
0.01643410 -0.01059842 0.02770387
0.01645146 -0.01059739 0.02765573
0.01266651 -0.01082599 0.01208820
0.01269020 -0.01082459 0.01204214
0.01274477 -0.01082137 0.01189341
0.01276295 -0.01082030 0.01184382
0.01277564 -0.01081955 0.01179071
0.01278834 -0.01081881 0.01173759
0.01280652 -0.01081774 0.01168802
0.01281922 -0.01081699 0.01163491
0.01282641 -0.01081657 0.01157823
0.01285009 -0.01081518 0.01153223
0.01286827 -0.01081410 0.01148267
0.01289193 -0.01081270 0.01143667
0.01289365 -0.01081261 0.01137645
0.01291183 -0.01081154 0.01132689
0.01294646 -0.01080948 0.01128802
0.00599656 -0.01127199 0.03980064
0.00865577 -0.01111423 0.03475813
0.00870332 -0.01111141 0.03466373
0.00876057 -0.01110799 0.03463314
0.00881223 -0.01110491 0.03459981
0.00885974 -0.01110209 0.03450549
0.00891691 -0.01109867 0.03447495
0.00895178 -0.01109660 0.03443336
0.00896437 -0.01109586 0.03438069
0.00898254 -0.01109479 0.03433079
0.00900069 -0.01109372 0.03428089
0.00902443 -0.01109231 0.03423377
0.00905371 -0.01109057 0.03418944
0.00909968 -0.01108783 0.03415345
0.00912894 -0.01108609 0.03410915
0.00913596 -0.01108568 0.03405372
0.00910962 -0.01108728 0.03398158
0.00912219 -0.01108654 0.03392892
0.00914590 -0.01108513 0.03388183
0.00916962 -0.01108373 0.03383476
0.00918220 -0.01108299 0.03378210
0.00918365 -0.01108292 0.03372386
0.00919624 -0.01108218 0.03367120
0.01040502 -0.01101019 0.03240040
0.01043402 -0.01100846 0.03235646
0.01045205 -0.01100740 0.03230689
0.01361248 -0.01081823 0.03242913
0.01414217 -0.01078671 0.03178102
0.01417027 -0.01078504 0.03173798
0.01416497 -0.01078541 0.03156138
0.01264735 -0.01087710 0.02835106
0.01639864 -0.01065278 0.02774197
0.01642632 -0.01065113 0.02769961
0.01265110 -0.01088128 0.01213991
0.01267479 -0.01087988 0.01209385
0.01269299 -0.01087880 0.01204427
0.01270568 -0.01087806 0.01199115
0.01272936 -0.01087665 0.01194510
0.01274206 -0.01087591 0.01189199
0.01276572 -0.01087450 0.01184595
0.01277842 -0.01087376 0.01179284
0.01279111 -0.01087301 0.01173972
0.01280931 -0.01087194 0.01169015
0.01282199 -0.01087119 0.01163704
0.01282370 -0.01087110 0.01157682
0.01284738 -0.01086970 0.01153082
0.01286554 -0.01086863 0.01148126
0.01288374 -0.01086755 0.01143170
0.01289642 -0.01086681 0.01137859
0.01291460 -0.01086573 0.01132904
0.01294374 -0.01086400 0.01128661
0.02026002 -0.01042533 0.01439103
0.02352038 -0.01023020 0.01445954
0.00872853 -0.01116386 0.03467616
0.00883184 -0.01115767 0.03460947
0.00885560 -0.01115626 0.03456231
0.00889048 -0.01115417 0.03452070
0.00896023 -0.01115001 0.03443750
0.00897282 -0.01114927 0.03438483
0.00899099 -0.01114819 0.03433494
0.00900356 -0.01114745 0.03428226
0.00902729 -0.01114604 0.03423515
0.00906214 -0.01114396 0.03419360
0.00910255 -0.01114155 0.03415484
0.00912069 -0.01114047 0.03410497
0.00913326 -0.01113973 0.03405232
0.00911248 -0.01114101 0.03398296
0.00912507 -0.01114027 0.03393030
0.00914878 -0.01113886 0.03388321
0.00916693 -0.01113779 0.03383335
0.00917394 -0.01113738 0.03377791
0.00917540 -0.01113732 0.03371966
0.00918800 -0.01113658 0.03366701
0.01043133 -0.01106226 0.03235507
0.01357991 -0.01087289 0.03252801
0.01359221 -0.01087216 0.03247649
0.01359923 -0.01087176 0.03242220
0.01362744 -0.01087008 0.03237902
0.01362915 -0.01087000 0.03232194
0.01639603 -0.01070519 0.02774061
0.01265389 -0.01093549 0.01214202
0.01267757 -0.01093408 0.01209597
0.01269026 -0.01093334 0.01204285
0.01273213 -0.01093085 0.01194721
0.01274481 -0.01093011 0.01189411
0.01276301 -0.01092903 0.01184454
0.01278120 -0.01092795 0.01179496
0.01279388 -0.01092721 0.01174185
0.01281206 -0.01092613 0.01169229
0.01281928 -0.01092572 0.01163562
0.01282647 -0.01092531 0.01157896
0.01285014 -0.01092390 0.01153296
0.01286833 -0.01092282 0.01148339
0.01287553 -0.01092241 0.01142674
0.01288821 -0.01092166 0.01137362
0.01291189 -0.01092026 0.01132762
0.02025743 -0.01047755 0.01438968
0.02351299 -0.01028178 0.01445495
0.02354424 -0.01027992 0.01441801
0.00871323 -0.01121872 0.03472747
0.00877050 -0.01121527 0.03469688
0.00885147 -0.01121041 0.03461913
0.00886963 -0.01120934 0.03456921
0.00889893 -0.01120759 0.03452484
0.00895755 -0.01120408 0.03443610
0.00897013 -0.01120334 0.03438342
0.00898272 -0.01120260 0.03433076
0.00900088 -0.01120153 0.03428086
0.00903016 -0.01119978 0.03423653
0.00906500 -0.01119769 0.03419498
0.00909986 -0.01119560 0.03415344
0.00911799 -0.01119452 0.03410356
0.00912502 -0.01119412 0.03404813
0.00910980 -0.01119507 0.03398156
0.00913350 -0.01119366 0.03393447
0.00915165 -0.01119258 0.03388461
0.00916423 -0.01119184 0.03383195
0.00917125 -0.01119144 0.03377651
0.00917271 -0.01119138 0.03371826
0.00918530 -0.01119064 0.03366560
0.00918674 -0.01119057 0.03360734
0.01356669 -0.01092642 0.03252110
0.01357900 -0.01092570 0.03246958
0.01358600 -0.01092529 0.03241529
0.01361421 -0.01092361 0.03237209
0.01361594 -0.01092353 0.03231502
0.01413164 -0.01089259 0.03177548
0.01263846 -0.01099078 0.01219373
0.01265666 -0.01098970 0.01214415
0.01266935 -0.01098895 0.01209103
0.01268755 -0.01098787 0.01204143
0.01272941 -0.01098538 0.01194580
0.01273662 -0.01098497 0.01188916
0.01276030 -0.01098356 0.01184312
0.01277848 -0.01098248 0.01179355
0.01279117 -0.01098174 0.01174043
0.01280935 -0.01098066 0.01169088
0.01282203 -0.01097991 0.01163776
0.01282924 -0.01097950 0.01158109
0.01284742 -0.01097842 0.01153155
0.01286560 -0.01097735 0.01148198
0.01287280 -0.01097693 0.01142532
0.01288550 -0.01097619 0.01137221
0.02025986 -0.01052947 0.01439165
0.02351043 -0.01033307 0.01445362
0.02354169 -0.01033120 0.01441668
0.01025352 -0.01117242 0.04898406
0.00881945 -0.01126627 0.03466212
0.00887106 -0.01126315 0.03462879
0.00888923 -0.01126207 0.03457887
0.00890739 -0.01126099 0.03452896
0.00896043 -0.01125782 0.03443747
0.00896744 -0.01125742 0.03438202
0.00898559 -0.01125634 0.03433213
0.00900376 -0.01125526 0.03428224
0.00902747 -0.01125384 0.03423513
0.00906788 -0.01125141 0.03419635
0.00909716 -0.01124965 0.03415204
0.00911529 -0.01124857 0.03410216
0.00911675 -0.01124851 0.03404395
0.00910152 -0.01124947 0.03397737
0.00912523 -0.01124805 0.03393029
0.00914896 -0.01124664 0.03388320
0.00916153 -0.01124590 0.03383055
0.00916299 -0.01124584 0.03377231
0.00916445 -0.01124578 0.03371406
0.00917147 -0.01124538 0.03365861
0.00917293 -0.01124532 0.03360035
0.00917996 -0.01124492 0.03354488
0.00919136 -0.01124433 0.03331455
0.00920396 -0.01124359 0.03326187
0.01356576 -0.01097923 0.03246266
0.01357807 -0.01097851 0.03241114
0.01361157 -0.01097650 0.03237072
0.01361330 -0.01097642 0.03231364
0.01413429 -0.01094505 0.03177691
0.01416238 -0.01094337 0.03173387
0.01415181 -0.01094410 0.03155448
0.01270302 -0.01104133 0.01199044
0.01272669 -0.01103992 0.01194439
0.01273391 -0.01103950 0.01188774
0.01275209 -0.01103842 0.01183816
0.01277576 -0.01103701 0.01179213
0.01278846 -0.01103626 0.01173902
0.01280662 -0.01103518 0.01168946
0.01281932 -0.01103444 0.01163635
0.01282653 -0.01103403 0.01157968
0.01284470 -0.01103295 0.01153013
0.01286289 -0.01103187 0.01148056
0.01287009 -0.01103146 0.01142391
0.01288278 -0.01103071 0.01137079
0.02026226 -0.01058138 0.01439359
0.02289085 -0.01042181 0.01444440
0.00886135 -0.01131763 0.03468283
0.00890325 -0.01131513 0.03458577
0.00892141 -0.01131405 0.03453587
0.00894514 -0.01131263 0.03448874
0.00896886 -0.01131121 0.03444161
0.00898144 -0.01131047 0.03438894
0.00899960 -0.01130939 0.03433905
0.00901775 -0.01130831 0.03428916
0.00904703 -0.01130654 0.03424483
0.00908189 -0.01130445 0.03420328
0.00910559 -0.01130303 0.03415619
0.00912373 -0.01130194 0.03410632
0.00913076 -0.01130155 0.03405090
0.00912665 -0.01130183 0.03398989
0.00914480 -0.01130075 0.03394003
0.00916293 -0.01129967 0.03389017
0.00917551 -0.01129893 0.03383751
0.00918254 -0.01129854 0.03378208
0.00917844 -0.01129882 0.03372104
0.00919102 -0.01129808 0.03366839
0.00918137 -0.01129870 0.03360454
0.00919394 -0.01129796 0.03355188
0.00918311 -0.01129876 0.03331034
0.00919363 -0.01129847 0.03266575
0.00962348 -0.01127326 0.03081470
0.01356483 -0.01103206 0.03240421
0.01360536 -0.01102964 0.03230949
0.01412638 -0.01099816 0.03177275
0.01415448 -0.01099647 0.03172971
0.01806852 -0.01075768 0.03193259
0.01809062 -0.01075636 0.03188774
0.01346396 -0.01104541 0.01913622
0.01272398 -0.01109445 0.01194298
0.01273119 -0.01109404 0.01188633
0.01274936 -0.01109296 0.01183674
0.01277305 -0.01109154 0.01179072
0.01278573 -0.01109079 0.01173761
0.01280391 -0.01108971 0.01168805
0.01281661 -0.01108896 0.01163493
0.01282382 -0.01108856 0.01157827
0.01283652 -0.01108781 0.01152516
0.01285468 -0.01108673 0.01147560
0.02288829 -0.01047328 0.01444306
0.02347888 -0.01043724 0.01449117
0.02350532 -0.01043565 0.01445096
0.00891872 -0.01136813 0.03453447
0.00894801 -0.01136636 0.03449010
0.00897731 -0.01136459 0.03444575
0.00899546 -0.01136351 0.03439586
0.00901362 -0.01136243 0.03434597
0.00903733 -0.01136100 0.03429886
0.00906104 -0.01135958 0.03425176
0.00910845 -0.01135673 0.03415757
0.00912660 -0.01135565 0.03410771
0.00913362 -0.01135525 0.03405228
0.00913508 -0.01135520 0.03399406
0.00914766 -0.01135446 0.03394141
0.00916581 -0.01135338 0.03389155
0.00917839 -0.01135264 0.03383891
0.00919098 -0.01135190 0.03378626
0.00919798 -0.01135151 0.03373081
0.00921057 -0.01135077 0.03367817
0.00920647 -0.01135106 0.03361713
0.00921349 -0.01135066 0.03356168
0.00921497 -0.01135061 0.03350341
0.00920530 -0.01135124 0.03343955
0.00956891 -0.01133040 0.03108269
0.00962079 -0.01132739 0.03081330
0.01353396 -0.01108666 0.03244603
0.01354629 -0.01108593 0.03239451
0.01355860 -0.01108521 0.03234297
0.01414658 -0.01104957 0.03172555
0.01802680 -0.01081168 0.03202370
0.01803882 -0.01081097 0.03197339
0.01805589 -0.01080995 0.03192580
0.01807295 -0.01080894 0.03187821
0.01272847 -0.01114857 0.01188492
0.01275215 -0.01114715 0.01183888
0.01277032 -0.01114606 0.01178931
0.02347150 -0.01048883 0.01448660
0.02349794 -0.01048724 0.01444638
0.00895646 -0.01141974 0.03449424
0.00899689 -0.01141728 0.03445543
0.00901504 -0.01141619 0.03440554
0.00902763 -0.01141546 0.03435288
0.00905134 -0.01141403 0.03430578
0.00906947 -0.01141294 0.03425591
0.00911133 -0.01141043 0.03415895
0.00912392 -0.01140970 0.03410630
0.00913650 -0.01140896 0.03405366
0.00914350 -0.01140856 0.03399823
0.00915053 -0.01140817 0.03394280
0.00916311 -0.01140743 0.03389015
0.00917570 -0.01140669 0.03383750
0.00918828 -0.01140595 0.03378486
0.00920086 -0.01140521 0.03373221
0.00921343 -0.01140448 0.03367956
0.00920933 -0.01140477 0.03361852
0.00921637 -0.01140438 0.03356307
0.00922339 -0.01140398 0.03350762
0.00922486 -0.01140393 0.03344935
0.00919850 -0.01140560 0.03337706
0.00956622 -0.01138453 0.03108129
0.00958435 -0.01138344 0.03103145
0.00961809 -0.01138152 0.03081189
0.01351902 -0.01114028 0.03249620
0.01353835 -0.01113917 0.03239036
0.01799515 -0.01086505 0.03212027
0.01801920 -0.01086364 0.03201964
0.01803122 -0.01086293 0.03196933
0.01804325 -0.01086223 0.03191901
0.01806030 -0.01086121 0.03187142
0.01808240 -0.01085988 0.03182657
0.01810449 -0.01085855 0.03178172
0.01812154 -0.01085753 0.03173415
0.00238895 -0.01183696 0.01532167
0.01218191 -0.01126375 0.04849784
0.00901090 -0.01147030 0.03446233
0.00902347 -0.01146956 0.03440968
0.00903606 -0.01146882 0.03435703
0.00907791 -0.01146630 0.03426006
0.00909606 -0.01146522 0.03421019
0.00911419 -0.01146414 0.03416032
0.00912678 -0.01146340 0.03410768
0.00913936 -0.01146266 0.03405503
0.00914638 -0.01146227 0.03399961
0.00915897 -0.01146153 0.03394697
0.00916597 -0.01146113 0.03389154
0.00917856 -0.01146039 0.03383889
0.00919114 -0.01145966 0.03378624
0.00919817 -0.01145926 0.03373080
0.00921629 -0.01145818 0.03368095
0.00921221 -0.01145848 0.03361992
0.00921923 -0.01145809 0.03356447
0.00922626 -0.01145769 0.03350902
0.00922216 -0.01145799 0.03344795
0.00919582 -0.01145967 0.03337566
0.00920430 -0.01145924 0.03326188
0.00921835 -0.01145845 0.03315090
0.00920869 -0.01145910 0.03308696
0.00924149 -0.01145754 0.03245348
0.00927636 -0.01145541 0.03241213
0.00955239 -0.01143935 0.03107411
0.00958057 -0.01143777 0.03085165
0.00961690 -0.01143560 0.03075197
0.01797047 -0.01091804 0.03216381
0.01799257 -0.01091671 0.03211893
0.01800963 -0.01091569 0.03207133
0.01801662 -0.01091529 0.03201830
0.01802361 -0.01091490 0.03196526
0.01803562 -0.01091419 0.03191494
0.01805270 -0.01091318 0.03186736
0.01810889 -0.01090981 0.03172734
0.00236772 -0.01189535 0.01530940
0.00240555 -0.01189304 0.01526804
0.00429448 -0.01177632 0.01518138
0.00905006 -0.01152183 0.03436394
0.00907934 -0.01152005 0.03431962
0.00909191 -0.01151931 0.03426698
0.00911005 -0.01151823 0.03421711
0.00913376 -0.01151679 0.03417003
0.00914077 -0.01151640 0.03411462
0.00915335 -0.01151566 0.03406198
0.00915481 -0.01151562 0.03400377
0.00916739 -0.01151488 0.03395113
0.00917441 -0.01151449 0.03389571
0.00918698 -0.01151375 0.03384306
0.00919402 -0.01151336 0.03378764
0.00920659 -0.01151262 0.03373499
0.00921917 -0.01151188 0.03368235
0.00922063 -0.01151184 0.03362411
0.00923322 -0.01151110 0.03357146
0.00923468 -0.01151105 0.03351321
0.00923058 -0.01151136 0.03345215
0.00919312 -0.01151375 0.03337425
0.00919458 -0.01151371 0.03331596
0.00920717 -0.01151297 0.03326330
0.00921419 -0.01151258 0.03320780
0.00922123 -0.01151218 0.03315231
0.00921713 -0.01151249 0.03309119
0.00920190 -0.01151349 0.03302441
0.00918256 -0.01151480 0.03289644
0.00918959 -0.01151440 0.03284091
0.00917436 -0.01151541 0.03277406
0.00918695 -0.01151467 0.03272135
0.00919397 -0.01151427 0.03266580
0.00920101 -0.01151388 0.03261025
0.00923879 -0.01151166 0.03245208
0.00926253 -0.01151023 0.03240505
0.00954969 -0.01149347 0.03107271
0.00954860 -0.01149369 0.03089431
0.00957231 -0.01149225 0.03084735
0.01802103 -0.01096656 0.03196392
0.01803306 -0.01096585 0.03191360
0.01805012 -0.01096483 0.03186601
0.01810631 -0.01096145 0.03172600
0.01609331 -0.01108804 0.02982695
0.00907664 -0.01157409 0.03431822
0.00908922 -0.01157335 0.03426558
0.00911292 -0.01157191 0.03421849
0.00913662 -0.01157048 0.03417141
0.00914364 -0.01157009 0.03411600
0.00915623 -0.01156935 0.03406336
0.00915767 -0.01156931 0.03400516
0.00917025 -0.01156857 0.03395252
0.00917171 -0.01156853 0.03389430
0.00917874 -0.01156814 0.03383888
0.00919132 -0.01156740 0.03378623
0.00920390 -0.01156667 0.03373358
0.00920683 -0.01156659 0.03361712
0.00919716 -0.01156724 0.03355327
0.00919862 -0.01156721 0.03349501
0.00920008 -0.01156716 0.03343674
0.00919600 -0.01156747 0.03337566
0.00919189 -0.01156778 0.03331456
0.00920448 -0.01156704 0.03326189
0.00921707 -0.01156630 0.03320921
0.00922409 -0.01156592 0.03315372
0.00921999 -0.01156623 0.03309260
0.00920476 -0.01156723 0.03302582
0.00919510 -0.01156790 0.03296185
0.00918543 -0.01156856 0.03289786
0.00919247 -0.01156817 0.03284234
0.00918835 -0.01156847 0.03278114
0.00920652 -0.01156739 0.03273126
0.00921354 -0.01156699 0.03267572
0.00921501 -0.01156696 0.03261735
0.00921090 -0.01156727 0.03255612
0.00922351 -0.01156653 0.03250340
0.00924724 -0.01156509 0.03245636
0.00927652 -0.01156330 0.03241216
0.00955813 -0.01154691 0.03107708
0.00954035 -0.01154818 0.03089001
0.00956407 -0.01154674 0.03084306
0.00959890 -0.01154461 0.03080189
0.01404598 -0.01126742 0.03045354
0.01609586 -0.01114006 0.02982843
0.01610288 -0.01113967 0.02977461
0.01789631 -0.01104145 0.01426674
0.02024877 -0.01089461 0.01432798
0.00909911 -0.01162665 0.03421154
0.00912282 -0.01162521 0.03416446
0.00912982 -0.01162483 0.03410903
0.00914797 -0.01162374 0.03405918
0.00914943 -0.01162370 0.03400097
0.00915644 -0.01162332 0.03394555
0.00915790 -0.01162328 0.03388733
0.00916493 -0.01162289 0.03383189
0.00917193 -0.01162250 0.03377645
0.00918452 -0.01162176 0.03372381
0.00920267 -0.01162067 0.03367395
0.00917077 -0.01162275 0.03359892
0.00917222 -0.01162271 0.03354067
0.00917923 -0.01162232 0.03348520
0.00918627 -0.01162193 0.03342973
0.00918773 -0.01162190 0.03337145
0.00918919 -0.01162186 0.03331316
0.00920178 -0.01162112 0.03326049
0.00921437 -0.01162038 0.03320781
0.00922139 -0.01162000 0.03315232
0.00922285 -0.01161996 0.03309401
0.00920764 -0.01162098 0.03302725
0.00919797 -0.01162164 0.03296327
0.00918831 -0.01162231 0.03289928
0.00920090 -0.01162157 0.03284658
0.00919679 -0.01162189 0.03278540
0.00921495 -0.01162080 0.03273552
0.00922756 -0.01162006 0.03268281
0.00922902 -0.01162002 0.03262444
0.00923048 -0.01161999 0.03256606
0.00923195 -0.01161995 0.03250768
0.00924455 -0.01161921 0.03245496
0.00926270 -0.01161812 0.03240508
0.00955026 -0.01160158 0.03083587
0.01401518 -0.01132204 0.03049517
0.01403807 -0.01132065 0.03044933
0.01808412 -0.01106577 0.03177089
0.01609842 -0.01119209 0.02982990
0.01610544 -0.01119170 0.02977607
0.02106056 -0.01087894 0.03204422
0.00233465 -0.01206865 0.01529054
0.01788850 -0.01109467 0.01426201
0.00914791 -0.01167749 0.03417694
0.00914937 -0.01167746 0.03411876
0.00915639 -0.01167707 0.03406334
0.00915229 -0.01167739 0.03400236
0.00915931 -0.01167701 0.03394693
0.00916077 -0.01167697 0.03388872
0.00916223 -0.01167694 0.03383049
0.00916925 -0.01167655 0.03377505
0.00917627 -0.01167617 0.03371961
0.00918886 -0.01167543 0.03366696
0.00914583 -0.01167822 0.03358633
0.00915284 -0.01167784 0.03353086
0.00915986 -0.01167745 0.03347539
0.00917947 -0.01167632 0.03336724
0.00918093 -0.01167629 0.03330895
0.00919908 -0.01167520 0.03325909
0.00920612 -0.01167481 0.03320359
0.00921869 -0.01167408 0.03315092
0.00921459 -0.01167440 0.03308979
0.00919937 -0.01167542 0.03302301
0.00919527 -0.01167574 0.03296187
0.00919117 -0.01167607 0.03290071
0.00919820 -0.01167568 0.03284518
0.00919966 -0.01167565 0.03278682
0.00921226 -0.01167491 0.03273411
0.00922486 -0.01167417 0.03268141
0.00923745 -0.01167343 0.03262870
0.00924447 -0.01167304 0.03257316
0.00925152 -0.01167266 0.03251761
0.00926411 -0.01167192 0.03246491
0.00926000 -0.01167224 0.03240368
0.00952533 -0.01165714 0.03082289
0.00958239 -0.01165358 0.03079330
0.01403014 -0.01137387 0.03044511
0.01402660 -0.01137416 0.03038507
0.01807147 -0.01111806 0.03176410
0.01607846 -0.01124548 0.02987670
0.01609065 -0.01124476 0.02982571
0.01610284 -0.01124405 0.02977472
0.01610985 -0.01124366 0.02972089
0.00233793 -0.01212551 0.01529266
0.01786521 -0.01114888 0.01424720
0.00914112 -0.01173184 0.03411457
0.00915925 -0.01173075 0.03406472
0.00914696 -0.01173173 0.03388174
0.00914842 -0.01173170 0.03382351
0.00914988 -0.01173167 0.03376528
0.00913464 -0.01173271 0.03369865
0.00912498 -0.01173339 0.03363480
0.00912087 -0.01173371 0.03357373
0.00913902 -0.01173262 0.03352385
0.00915161 -0.01173188 0.03347117
0.00915863 -0.01173150 0.03341570
0.00917122 -0.01173076 0.03336303
0.00917268 -0.01173073 0.03330474
0.00918527 -0.01172999 0.03325206
0.00919785 -0.01172925 0.03319938
0.00920488 -0.01172887 0.03314389
0.00920078 -0.01172919 0.03308276
0.00919111 -0.01172987 0.03301880
0.00918701 -0.01173020 0.03295764
0.00918292 -0.01173052 0.03289647
0.00918993 -0.01173014 0.03284094
0.00918584 -0.01173047 0.03277977
0.00920399 -0.01172937 0.03272989
0.00921659 -0.01172863 0.03267717
0.00922363 -0.01172825 0.03262164
0.00922509 -0.01172822 0.03256325
0.00923769 -0.01172748 0.03251054
0.00925028 -0.01172674 0.03245783
0.00951707 -0.01171164 0.03081859
0.00957413 -0.01170807 0.03078900
0.00959229 -0.01170697 0.03073916
0.01403274 -0.01142662 0.03027211
0.01805688 -0.01117042 0.03181307
0.01806889 -0.01116972 0.03176276
0.01608102 -0.01129750 0.02987818
0.01608804 -0.01129711 0.02982435
0.01610023 -0.01129639 0.02977336
0.01610725 -0.01129601 0.02971954
0.00915128 -0.01178539 0.03382490
0.00913049 -0.01178680 0.03375550
0.00910969 -0.01178820 0.03368606
0.00911260 -0.01178815 0.03356952
0.00912519 -0.01178741 0.03351685
0.00913778 -0.01178667 0.03346417
0.00915037 -0.01178593 0.03341150
0.00915739 -0.01178555 0.03335601
0.00915885 -0.01178552 0.03329772
0.00917700 -0.01178443 0.03324784
0.00918959 -0.01178369 0.03319516
0.00919662 -0.01178331 0.03313967
0.00919253 -0.01178364 0.03307854
0.00918286 -0.01178433 0.03301458
0.00918432 -0.01178430 0.03295624
0.00918022 -0.01178463 0.03289507
0.00918168 -0.01178461 0.03283672
0.00918314 -0.01178458 0.03277836
0.00919573 -0.01178384 0.03272565
0.00920834 -0.01178310 0.03267294
0.00920980 -0.01178307 0.03261456
0.00920568 -0.01178340 0.03255334
0.00922386 -0.01178231 0.03250346
0.00923088 -0.01178193 0.03244790
0.00951438 -0.01176580 0.03081718
0.00956589 -0.01176256 0.03078470
0.01402481 -0.01147987 0.03026789
0.01404770 -0.01147846 0.03022206
0.01807137 -0.01122105 0.03176415
0.01609060 -0.01134913 0.02982583
0.01610279 -0.01134842 0.02977484
0.01610979 -0.01134803 0.02972101
0.00425507 -0.01211445 0.01823942
0.00426823 -0.01211368 0.01818439
0.00429931 -0.01211176 0.01813971
0.01333657 -0.01154217 0.01416834
0.00908740 -0.01184339 0.03379279
0.00909732 -0.01184297 0.03362080
0.00909877 -0.01184295 0.03356252
0.00911693 -0.01184185 0.03351264
0.00912952 -0.01184111 0.03345997
0.00913654 -0.01184073 0.03340448
0.00914913 -0.01183999 0.03335180
0.00915059 -0.01183997 0.03329351
0.00916874 -0.01183887 0.03324363
0.00918134 -0.01183813 0.03319095
0.00918837 -0.01183775 0.03313545
0.00918427 -0.01183809 0.03307432
0.00918016 -0.01183842 0.03301317
0.00918163 -0.01183840 0.03295484
0.00917752 -0.01183874 0.03289367
0.00918454 -0.01183836 0.03283814
0.00918600 -0.01183833 0.03277978
0.00919859 -0.01183759 0.03272708
0.00921120 -0.01183685 0.03267436
0.00921266 -0.01183683 0.03261599
0.00920856 -0.01183717 0.03255478
0.00922117 -0.01183643 0.03250206
0.00922818 -0.01183605 0.03244650
0.00896974 -0.01185372 0.03148454
0.00898236 -0.01185298 0.03143168
0.00899500 -0.01185224 0.03137883
0.01402754 -0.01153222 0.03044384
0.01402926 -0.01153217 0.03038664
0.01402044 -0.01153281 0.03032374
0.01402219 -0.01153277 0.03026652
0.01404506 -0.01153137 0.03022069
0.01806375 -0.01127302 0.03176007
0.01806571 -0.01127296 0.03170430
0.01608799 -0.01140148 0.02982447
0.01610018 -0.01140076 0.02977348
0.01610719 -0.01140038 0.02971966
0.01068674 -0.01176045 0.01813227
0.01205859 -0.01167956 0.01268499
0.00907648 -0.01189815 0.03366928
0.00908349 -0.01189777 0.03361380
0.00908495 -0.01189775 0.03355552
0.00910866 -0.01189629 0.03350844
0.00911570 -0.01189591 0.03345295
0.00912829 -0.01189517 0.03340027
0.00913531 -0.01189479 0.03334478
0.00914234 -0.01189441 0.03328929
0.00916049 -0.01189332 0.03323942
0.00917308 -0.01189258 0.03318673
0.00918010 -0.01189220 0.03313123
0.00917600 -0.01189254 0.03307009
0.00917190 -0.01189288 0.03300895
0.00917894 -0.01189250 0.03295343
0.00917482 -0.01189284 0.03289226
0.00918184 -0.01189247 0.03283674
0.00918330 -0.01189245 0.03277838
0.00920148 -0.01189135 0.03272850
0.00921407 -0.01189061 0.03267580
0.00921553 -0.01189059 0.03261742
0.00921699 -0.01189057 0.03255904
0.00922403 -0.01189019 0.03250349
0.00923106 -0.01188981 0.03244794
0.00894323 -0.01190944 0.03153023
0.00895587 -0.01190870 0.03147738
0.00896290 -0.01190832 0.03142164
0.00898112 -0.01190722 0.03137166
0.00898816 -0.01190684 0.03131592
0.00898401 -0.01190719 0.03125440
0.00901632 -0.01190532 0.03109291
0.01402490 -0.01158511 0.03044247
0.01402663 -0.01158507 0.03038527
0.01401781 -0.01158571 0.03032237
0.01401955 -0.01158568 0.03026515
0.01404244 -0.01158427 0.03021932
0.01805615 -0.01132500 0.03175601
0.01608022 -0.01145416 0.02982028
0.01609239 -0.01145344 0.02976929
0.01609425 -0.01145340 0.02971263
0.01205033 -0.01173458 0.01268005
0.00906821 -0.01195259 0.03366508
0.00906967 -0.01195258 0.03360680
0.00907113 -0.01195256 0.03354851
0.00909485 -0.01195110 0.03350144
0.00910743 -0.01195036 0.03344875
0.00912002 -0.01194962 0.03339607
0.00913261 -0.01194888 0.03334338
0.00913407 -0.01194886 0.03328508
0.00915223 -0.01194776 0.03323521
0.00917038 -0.01194666 0.03318533
0.00917742 -0.01194628 0.03312983
0.00916773 -0.01194699 0.03306588
0.00916921 -0.01194698 0.03300755
0.00917067 -0.01194697 0.03294921
0.00916655 -0.01194731 0.03288804
0.00917915 -0.01194657 0.03283533
0.00918061 -0.01194656 0.03277698
0.00919321 -0.01194582 0.03272427
0.00921138 -0.01194472 0.03267439
0.00921284 -0.01194470 0.03261602
0.00920872 -0.01194505 0.03255481
0.00922133 -0.01194431 0.03250209
0.00922836 -0.01194393 0.03244653
0.00894466 -0.01196336 0.03159031
0.00893493 -0.01196408 0.03152595
0.00894757 -0.01196333 0.03147309
0.00896019 -0.01196259 0.03142023
0.00897843 -0.01196149 0.03137025
0.00898546 -0.01196111 0.03131451
0.00898132 -0.01196146 0.03125299
0.00901362 -0.01195960 0.03109150
0.00902626 -0.01195886 0.03103864
0.01402754 -0.01163766 0.03044394
0.01402928 -0.01163762 0.03038674
0.01402046 -0.01163827 0.03032384
0.01402219 -0.01163824 0.03026662
0.01403980 -0.01163717 0.03021795
0.01805358 -0.01137666 0.03175467
0.01806056 -0.01137628 0.03170162
0.01606727 -0.01150718 0.02981326
0.01607946 -0.01150647 0.02976227
0.01608649 -0.01150609 0.02970844
0.00906286 -0.01200701 0.03354431
0.00908658 -0.01200555 0.03349723
0.00910474 -0.01200445 0.03344735
0.00911176 -0.01200407 0.03339186
0.00911878 -0.01200370 0.03333636
0.00912581 -0.01200332 0.03328086
0.00913841 -0.01200258 0.03322817
0.00915100 -0.01200184 0.03317548
0.00915244 -0.01200183 0.03311717
0.00915392 -0.01200182 0.03305884
0.00916095 -0.01200144 0.03300333
0.00916240 -0.01200143 0.03294498
0.00916386 -0.01200142 0.03288664
0.00917089 -0.01200104 0.03283111
0.00917235 -0.01200103 0.03277275
0.00918496 -0.01200029 0.03272004
0.00920311 -0.01199919 0.03267016
0.00920457 -0.01199918 0.03261178
0.00920048 -0.01199953 0.03255057
0.00921308 -0.01199879 0.03249785
0.00922567 -0.01199805 0.03244513
0.00922157 -0.01199841 0.03238389
0.00894754 -0.01201725 0.03159177
0.00893782 -0.01201798 0.03152741
0.00894485 -0.01201760 0.03147168
0.00895749 -0.01201686 0.03141882
0.00897571 -0.01201575 0.03136884
0.00898835 -0.01201501 0.03131599
0.00898421 -0.01201537 0.03125447
0.00901093 -0.01201387 0.03109010
0.00904177 -0.01201202 0.03098726
0.01402839 -0.01169048 0.03032815
0.01402484 -0.01169080 0.03026810
0.01404773 -0.01168938 0.03022226
0.01805100 -0.01142831 0.03175333
0.01605433 -0.01156021 0.02980624
0.01606135 -0.01155983 0.02975242
0.01607354 -0.01155912 0.02970142
0.00905459 -0.01206147 0.03354010
0.00907832 -0.01206000 0.03349303
0.00909647 -0.01205890 0.03344314
0.00910351 -0.01205852 0.03338765
0.00911053 -0.01205815 0.03333215
0.00911754 -0.01205778 0.03327665
0.00912456 -0.01205740 0.03322116
0.00913715 -0.01205666 0.03316846
0.00913863 -0.01205666 0.03311013
0.00914566 -0.01205629 0.03305462
0.00915268 -0.01205591 0.03299911
0.00915971 -0.01205554 0.03294358
0.00915560 -0.01205590 0.03288241
0.00916819 -0.01205516 0.03282970
0.00916965 -0.01205515 0.03277134
0.00918226 -0.01205441 0.03271863
0.00919485 -0.01205367 0.03266592
0.00920187 -0.01205329 0.03261038
0.00920334 -0.01205329 0.03255200
0.00921038 -0.01205291 0.03249644
0.00922853 -0.01205181 0.03244657
0.00923000 -0.01205180 0.03238817
0.00893366 -0.01207225 0.03158461
0.00892393 -0.01207298 0.03152025
0.00893655 -0.01207223 0.03146739
0.00894360 -0.01207186 0.03141165
0.00895624 -0.01207112 0.03135879
0.00896886 -0.01207038 0.03130592
0.00897178 -0.01207037 0.03118864
0.00898442 -0.01206962 0.03113578
0.00904611 -0.01206592 0.03093009
0.00906992 -0.01206444 0.03088302
0.01402220 -0.01174370 0.03026672
0.01403981 -0.01174263 0.03021804
0.01605357 -0.01161253 0.02974822
0.01606576 -0.01161181 0.02969722
0.01115394 -0.01195463 0.01377167
0.01118900 -0.01195241 0.01373225
0.00908822 -0.01211335 0.03343894
0.00909524 -0.01211298 0.03338344
0.00910226 -0.01211261 0.03332794
0.00910929 -0.01211224 0.03327244
0.00911631 -0.01211187 0.03321693
0.00911778 -0.01211186 0.03315861
0.00912479 -0.01211149 0.03310309
0.00913182 -0.01211112 0.03304758
0.00913885 -0.01211075 0.03299206
0.00914031 -0.01211074 0.03293371
0.00913620 -0.01211111 0.03287253
0.00914323 -0.01211074 0.03281699
0.00914469 -0.01211073 0.03275862
0.00915729 -0.01210999 0.03270591
0.00917545 -0.01210888 0.03265602
0.00918248 -0.01210851 0.03260048
0.00918394 -0.01210851 0.03254208
0.00920211 -0.01210740 0.03249220
0.00921470 -0.01210666 0.03243949
0.00922173 -0.01210629 0.03238392
0.00919683 -0.01210812 0.03225287
0.00894070 -0.01212578 0.03164755
0.00892536 -0.01212688 0.03158033
0.00892122 -0.01212725 0.03151884
0.00893386 -0.01212650 0.03146598
0.00894089 -0.01212613 0.03141024
0.00895353 -0.01212539 0.03135738
0.00895497 -0.01212539 0.03129875
0.00895643 -0.01212538 0.03124011
0.00896348 -0.01212501 0.03118435
0.00897612 -0.01212427 0.03113148
0.00899434 -0.01212316 0.03108150
0.00900139 -0.01212278 0.03102574
0.00902520 -0.01212130 0.03097866
0.00905605 -0.01211945 0.03087582
0.01114562 -0.01200984 0.01376674
0.01118626 -0.01200724 0.01373082
0.01121017 -0.01200575 0.01368442
0.01125333 -0.01200347 0.01334290
0.01222514 -0.01193737 0.04840089
0.00910659 -0.01216634 0.03327104
0.00911361 -0.01216596 0.03321553
0.00911509 -0.01216596 0.03315721
0.00911799 -0.01216596 0.03304054
0.00913058 -0.01216523 0.03298784
0.00912090 -0.01216596 0.03292384
0.00910565 -0.01216707 0.03285700
0.00911824 -0.01216633 0.03280428
0.00911970 -0.01216633 0.03274591
0.00913231 -0.01216559 0.03269318
0.00915048 -0.01216448 0.03264329
0.00916308 -0.01216374 0.03259057
0.00917011 -0.01216337 0.03253501
0.00919384 -0.01216189 0.03248796
0.00920644 -0.01216115 0.03243524
0.00893240 -0.01218040 0.03164327
0.00892825 -0.01218077 0.03158180
0.00892411 -0.01218114 0.03152031
0.00893675 -0.01218040 0.03146746
0.00894938 -0.01217966 0.03141460
0.00895642 -0.01217929 0.03135885
0.00896345 -0.01217892 0.03130311
0.00895932 -0.01217929 0.03124159
0.00896078 -0.01217929 0.03118294
0.00897901 -0.01217818 0.03113296
0.00899164 -0.01217744 0.03108009
0.00900428 -0.01217669 0.03102722
0.00902249 -0.01217558 0.03097725
0.00905333 -0.01217373 0.03087441
0.01221727 -0.01198990 0.04839730
0.00910945 -0.01222006 0.03327244
0.00911649 -0.01221969 0.03321695
0.00911795 -0.01221970 0.03315862
0.00912087 -0.01221970 0.03304195
0.00913346 -0.01221896 0.03298926
0.00912379 -0.01221971 0.03292526
0.00910296 -0.01222119 0.03285559
0.00910999 -0.01222083 0.03280005
0.00911143 -0.01222083 0.03274167
0.00912961 -0.01221972 0.03269178
0.00914778 -0.01221861 0.03264189
0.00916594 -0.01221750 0.03259200
0.00916742 -0.01221750 0.03253361
0.00919114 -0.01221602 0.03248656
0.00919819 -0.01221565 0.03243100
0.00892968 -0.01223466 0.03164186
0.00892554 -0.01223503 0.03158040
0.00892141 -0.01223541 0.03151891
0.00893404 -0.01223467 0.03146605
0.00894667 -0.01223392 0.03141319
0.00895372 -0.01223356 0.03135744
0.00896075 -0.01223319 0.03130171
0.00896220 -0.01223319 0.03124307
0.00896366 -0.01223320 0.03118442
0.00897630 -0.01223245 0.03113155
0.00899452 -0.01223134 0.03108158
0.00900716 -0.01223060 0.03102871
0.00901979 -0.01222986 0.03097584
0.00903243 -0.01222911 0.03092297
0.00905064 -0.01222800 0.03087301
0.01401959 -0.01190205 0.03026546
0.01403190 -0.01190133 0.03021393
0.01403894 -0.01190096 0.03015955
0.01404595 -0.01190059 0.03010517
0.01406355 -0.01189951 0.03005649
0.01407588 -0.01189879 0.03000496
0.01408289 -0.01189842 0.02995057
0.01081248 -0.01213427 0.01778305
0.01220939 -0.01204243 0.04839371
0.01224789 -0.01203995 0.04835405
0.00911935 -0.01227341 0.03321835
0.00908911 -0.01227607 0.03284854
0.00910172 -0.01227533 0.03279582
0.00912134 -0.01227422 0.03268754
0.00914508 -0.01227274 0.03264048
0.00916325 -0.01227162 0.03259059
0.00915913 -0.01227200 0.03252937
0.00918844 -0.01227014 0.03248515
0.00893258 -0.01228854 0.03164333
0.00892843 -0.01228892 0.03158186
0.00892431 -0.01228930 0.03152038
0.00893693 -0.01228856 0.03146752
0.00894397 -0.01228819 0.03141178
0.00895101 -0.01228783 0.03135604
0.00895804 -0.01228746 0.03130030
0.00895950 -0.01228747 0.03124166
0.00896096 -0.01228748 0.03118302
0.00897360 -0.01228673 0.03113015
0.00899182 -0.01228562 0.03108017
0.00900446 -0.01228487 0.03102730
0.00901708 -0.01228413 0.03097443
0.00902972 -0.01228339 0.03092156
0.00904793 -0.01228227 0.03087160
0.01402926 -0.01195423 0.03021255
0.01403099 -0.01195422 0.03015533
0.01404332 -0.01195349 0.03010380
0.01405562 -0.01195277 0.03005227
0.01406267 -0.01195240 0.02999789
0.01407498 -0.01195168 0.02994635
0.01408729 -0.01195096 0.02989481
0.01410489 -0.01194988 0.02984614
0.01083520 -0.01218744 0.01767515
0.01220679 -0.01209461 0.04839236
0.00908376 -0.01233059 0.03272754
0.00910752 -0.01232910 0.03268047
0.00912011 -0.01232836 0.03262774
0.00917462 -0.01232502 0.03247808
0.00892988 -0.01234279 0.03164192
0.00893132 -0.01234280 0.03158332
0.00892159 -0.01234357 0.03151897
0.00893423 -0.01234282 0.03146611
0.00894126 -0.01234246 0.03141037
0.00894831 -0.01234209 0.03135463
0.00895534 -0.01234173 0.03129889
0.00895679 -0.01234174 0.03124025
0.00895266 -0.01234213 0.03117872
0.00897089 -0.01234101 0.03112874
0.00898352 -0.01234027 0.03107587
0.00899616 -0.01233953 0.03102300
0.00900880 -0.01233879 0.03097013
0.00902143 -0.01233804 0.03091726
0.00903966 -0.01233693 0.03086729
0.00904670 -0.01233656 0.03081153
0.00904256 -0.01233695 0.03074994
0.00904961 -0.01233658 0.03069416
0.00906783 -0.01233546 0.03064419
0.01403719 -0.01200642 0.03021688
0.01403895 -0.01200641 0.03015965
0.01404597 -0.01200604 0.03010527
0.01406358 -0.01200496 0.03005660
0.01407060 -0.01200460 0.03000221
0.01407762 -0.01200423 0.02994782
0.01408994 -0.01200351 0.02989630
0.01411283 -0.01200207 0.02985048
0.01413570 -0.01200064 0.02980468
0.01415858 -0.01199920 0.02975887
0.00904617 -0.01238697 0.03276756
0.00904205 -0.01238736 0.03270632
0.00907695 -0.01238512 0.03266491
0.00909513 -0.01238400 0.03261501
0.00911887 -0.01238251 0.03256794
0.00913146 -0.01238177 0.03251521
0.00893275 -0.01239667 0.03164338
0.00893421 -0.01239668 0.03158480
0.00892447 -0.01239745 0.03152043
0.00893153 -0.01239709 0.03146470
0.00893857 -0.01239673 0.03140897
0.00894560 -0.01239636 0.03135322
0.00894704 -0.01239638 0.03129459
0.00895409 -0.01239601 0.03123885
0.00894997 -0.01239641 0.03117731
0.00896260 -0.01239566 0.03112444
0.00897522 -0.01239492 0.03107157
0.00898227 -0.01239456 0.03101581
0.00900050 -0.01239344 0.03096583
0.00901313 -0.01239270 0.03091296
0.00903136 -0.01239158 0.03086299
0.00903840 -0.01239121 0.03080722
0.00903428 -0.01239161 0.03074563
0.00903572 -0.01239162 0.03068694
0.00905955 -0.01239013 0.03063988
0.01403102 -0.01205967 0.03015544
0.01404333 -0.01205895 0.03010390
0.01405565 -0.01205822 0.03005237
0.01406796 -0.01205750 0.03000084
0.01407498 -0.01205713 0.02994645
0.01408730 -0.01205641 0.02989493
0.01411019 -0.01205497 0.02984911
0.01413307 -0.01205353 0.02980331
0.01415594 -0.01205210 0.02975750
0.01107928 -0.01228704 0.01403372
0.01110321 -0.01228554 0.01398729
0.01112713 -0.01228403 0.01394086
0.01116543 -0.01228179 0.01378062
0.01118933 -0.01228028 0.01373421
0.01219472 -0.01219933 0.04844271
0.01221213 -0.01219826 0.04839411
0.00899886 -0.01244415 0.03274350
0.00901705 -0.01244303 0.03269359
0.00904638 -0.01244115 0.03264934
0.00904784 -0.01244117 0.03259092
0.00908273 -0.01243892 0.03254952
0.00911763 -0.01243666 0.03250813
0.00893006 -0.01245092 0.03164198
0.00893711 -0.01245056 0.03158626
0.00893854 -0.01245058 0.03152766
0.00894000 -0.01245060 0.03146905
0.00893585 -0.01245099 0.03140756
0.00894290 -0.01245063 0.03135181
0.00894994 -0.01245027 0.03129607
0.00895138 -0.01245029 0.03123744
0.00894725 -0.01245069 0.03117590
0.00895989 -0.01244994 0.03112303
0.00897253 -0.01244920 0.03107017
0.00897957 -0.01244884 0.03101440
0.00899221 -0.01244810 0.03096152
0.00900485 -0.01244736 0.03090865
0.00901747 -0.01244662 0.03085577
0.00901893 -0.01244664 0.03079709
0.00902037 -0.01244665 0.03073841
0.00903301 -0.01244591 0.03068554
0.00905684 -0.01244441 0.03063847
0.00906947 -0.01244367 0.03058559
0.00907092 -0.01244368 0.03052689
0.01404069 -0.01211185 0.03010253
0.01405302 -0.01211112 0.03005100
0.01406533 -0.01211040 0.02999947
0.01407234 -0.01211004 0.02994508
0.01408996 -0.01210895 0.02989642
0.01411285 -0.01210751 0.02985059
0.01414628 -0.01210535 0.02981052
0.01108214 -0.01234150 0.01403578
0.01110604 -0.01234000 0.01398935
0.01112998 -0.01233848 0.01394293
0.01116826 -0.01233624 0.01378270
0.00904368 -0.01249530 0.03264793
0.00903957 -0.01249570 0.03258668
0.00906889 -0.01249382 0.03254244
0.00910936 -0.01249118 0.03250389
0.00904828 -0.01249583 0.03223599
0.00892735 -0.01250517 0.03164057
0.00893439 -0.01250481 0.03158485
0.00893584 -0.01250483 0.03152625
0.00894289 -0.01250448 0.03147053
0.00893316 -0.01250526 0.03140616
0.00893460 -0.01250528 0.03134753
0.00894724 -0.01250454 0.03129467
0.00895427 -0.01250418 0.03123891
0.00894456 -0.01250497 0.03117450
0.00895719 -0.01250422 0.03112163
0.00896981 -0.01250348 0.03106876
0.00897686 -0.01250312 0.03101299
0.00899509 -0.01250200 0.03096301
0.00900213 -0.01250164 0.03090724
0.00902036 -0.01250052 0.03085727
0.00902182 -0.01250054 0.03079860
0.00902328 -0.01250056 0.03073991
0.00903592 -0.01249982 0.03068703
0.00905414 -0.01249870 0.03063706
0.00906678 -0.01249795 0.03058419
0.00906822 -0.01249797 0.03052548
0.01109217 -0.01239559 0.01398095
0.01112168 -0.01239370 0.01393801
0.01114720 -0.01239220 0.01383119
0.01115996 -0.01239145 0.01377778
0.01118943 -0.01238956 0.01373487
0.00892465 -0.01255943 0.03163917
0.00893170 -0.01255907 0.03158345
0.00893313 -0.01255909 0.03152484
0.00894018 -0.01255873 0.03146912
0.00892486 -0.01255991 0.03140187
0.00893189 -0.01255955 0.03134612
0.00893894 -0.01255920 0.03129037
0.00894597 -0.01255884 0.03123462
0.00894184 -0.01255925 0.03117309
0.00894889 -0.01255889 0.03111733
0.00896153 -0.01255815 0.03106445
0.00896856 -0.01255779 0.03100869
0.00898680 -0.01255666 0.03095870
0.00899383 -0.01255630 0.03090294
0.00901206 -0.01255518 0.03085296
0.00901352 -0.01255520 0.03079429
0.00902057 -0.01255485 0.03073850
0.00902760 -0.01255449 0.03068272
0.00905143 -0.01255298 0.03063565
0.00906406 -0.01255224 0.03058278
0.00906551 -0.01255226 0.03052408
0.00907815 -0.01255152 0.03047120
0.01107828 -0.01245120 0.01397254
0.01111335 -0.01244891 0.01393309
0.01112612 -0.01244816 0.01387968
0.01113887 -0.01244741 0.01382627
0.01115723 -0.01244628 0.01377636
0.01118113 -0.01244477 0.01372995
0.01124008 -0.01244097 0.01364414
0.00890931 -0.01261442 0.03169060
0.00891636 -0.01261406 0.03163489
0.00892340 -0.01261371 0.03157917
0.00892484 -0.01261374 0.03152056
0.00892629 -0.01261376 0.03146195
0.00891097 -0.01261495 0.03139469
0.00892359 -0.01261421 0.03134183
0.00893064 -0.01261385 0.03128608
0.00893769 -0.01261350 0.03123033
0.00893354 -0.01261391 0.03116879
0.00894618 -0.01261317 0.03111592
0.00895323 -0.01261281 0.03106015
0.00896586 -0.01261207 0.03100728
0.00897850 -0.01261133 0.03095441
0.00899114 -0.01261059 0.03090153
0.00900936 -0.01260946 0.03085155
0.00901082 -0.01260949 0.03079288
0.00901227 -0.01260952 0.03073419
0.00902490 -0.01260878 0.03068131
0.00904314 -0.01260765 0.03063134
0.00905578 -0.01260691 0.03057846
0.00905722 -0.01260694 0.03051975
0.00907545 -0.01260581 0.03046979
0.01107556 -0.01250604 0.01397112
0.01111062 -0.01250375 0.01393167
0.01113614 -0.01250225 0.01382486
0.01115449 -0.01250111 0.01377494
0.01117840 -0.01249960 0.01372853
0.00889958 -0.01266903 0.03174491
0.00890662 -0.01266867 0.03168920
0.00890806 -0.01266871 0.03163061
0.00892068 -0.01266796 0.03157776
0.00892214 -0.01266800 0.03151916
0.00892359 -0.01266803 0.03146055
0.00890826 -0.01266922 0.03139328
0.00892648 -0.01266809 0.03134330
0.00892793 -0.01266813 0.03128468
0.00893499 -0.01266777 0.03122892
0.00893643 -0.01266781 0.03117027
0.00894907 -0.01266706 0.03111740
0.00896171 -0.01266632 0.03106453
0.00896876 -0.01266597 0.03100877
0.00898139 -0.01266523 0.03095589
0.00899401 -0.01266448 0.03090302
0.00900665 -0.01266374 0.03085014
0.00900811 -0.01266377 0.03079147
0.00900955 -0.01266380 0.03073278
0.00901660 -0.01266345 0.03067699
0.00903483 -0.01266232 0.03062702
0.00904746 -0.01266158 0.03057414
0.00904892 -0.01266161 0.03051544
0.00906715 -0.01266048 0.03046547
0.00889812 -0.01272278 0.03192208
0.00889687 -0.01272328 0.03174350
0.00889833 -0.01272331 0.03168491
0.00890537 -0.01272296 0.03162920
0.00891240 -0.01272261 0.03157347
0.00891384 -0.01272264 0.03151488
0.00892088 -0.01272229 0.03145914
0.00890556 -0.01272349 0.03139187
0.00891820 -0.01272275 0.03133901
0.00893082 -0.01272201 0.03128615
0.00893228 -0.01272205 0.03122751
0.00893374 -0.01272209 0.03116886
0.00894637 -0.01272134 0.03111599
0.00895341 -0.01272099 0.03106023
0.00896604 -0.01272025 0.03100736
0.00897868 -0.01271951 0.03095448
0.00899132 -0.01271876 0.03090161
0.00900395 -0.01271802 0.03084873
0.00899421 -0.01271884 0.03078425
0.00899567 -0.01271887 0.03072556
0.00900830 -0.01271813 0.03067268
0.00902654 -0.01271700 0.03062271
0.00903359 -0.01271665 0.03056692
0.00904064 -0.01271630 0.03051112
0.00905886 -0.01271516 0.03046115
0.00909387 -0.01271287 0.03041992
0.01148361 -0.01255978 0.04858968
0.01151706 -0.01255758 0.04854762
0.00890225 -0.01277612 0.03210201
0.00891487 -0.01277538 0.03204919
0.00887720 -0.01277815 0.03197064
0.00888424 -0.01277780 0.03191495
0.00888009 -0.01277823 0.03185351
0.00889273 -0.01277749 0.03180067
0.00889418 -0.01277753 0.03174210
0.00889562 -0.01277757 0.03168351
0.00890265 -0.01277722 0.03162779
0.00891529 -0.01277648 0.03157494
0.00892232 -0.01277612 0.03151922
0.00892377 -0.01277617 0.03146061
0.00890285 -0.01277777 0.03139047
0.00891548 -0.01277702 0.03133760
0.00892812 -0.01277628 0.03128474
0.00892958 -0.01277632 0.03122611
0.00891985 -0.01277715 0.03116168
0.00893249 -0.01277640 0.03110880
0.00894511 -0.01277566 0.03105593
0.00895216 -0.01277531 0.03100016
0.00896479 -0.01277457 0.03094728
0.00897743 -0.01277383 0.03089441
0.00899006 -0.01277309 0.03084153
0.00898592 -0.01277351 0.03077994
0.00898738 -0.01277355 0.03072125
0.00900002 -0.01277281 0.03066836
0.00902383 -0.01277129 0.03062130
0.00903647 -0.01277055 0.03056841
0.00903793 -0.01277059 0.03050971
0.00905615 -0.01276945 0.03045974
0.00909674 -0.01276676 0.03042144
0.00636047 -0.01298769 0.01647718
0.00888836 -0.01283113 0.03209490
0.00886622 -0.01283326 0.03184637
0.00887884 -0.01283252 0.03179353
0.00886910 -0.01283335 0.03172921
0.00887614 -0.01283300 0.03167348
0.00888318 -0.01283265 0.03161776
0.00888464 -0.01283269 0.03155916
0.00889726 -0.01283195 0.03150631
0.00889871 -0.01283200 0.03144769
0.00888897 -0.01283282 0.03138330
0.00890718 -0.01283169 0.03133331
0.00891425 -0.01283134 0.03127757
0.00892128 -0.01283099 0.03122181
0.00891155 -0.01283182 0.03115738
0.00892977 -0.01283069 0.03110740
0.00893682 -0.01283034 0.03105163
0.00894386 -0.01282999 0.03099585
0.00895649 -0.01282925 0.03094298
0.00896353 -0.01282890 0.03088719
0.00897616 -0.01282816 0.03083432
0.00897203 -0.01282859 0.03077273
0.00897908 -0.01282824 0.03071694
0.00899172 -0.01282750 0.03066406
0.00900435 -0.01282676 0.03061117
0.00901701 -0.01282601 0.03055828
0.00902405 -0.01282567 0.03050248
0.00904787 -0.01282414 0.03045542
0.02133067 -0.01200508 0.01917866
0.00885376 -0.01288835 0.03178065
0.00883843 -0.01288958 0.03171346
0.00885107 -0.01288884 0.03166059
0.00886370 -0.01288809 0.03160773
0.00887074 -0.01288775 0.03155200
0.00888337 -0.01288701 0.03149914
0.00888482 -0.01288705 0.03144052
0.00888067 -0.01288749 0.03137901
0.00889331 -0.01288675 0.03132614
0.00890595 -0.01288601 0.03127327
0.00890180 -0.01288645 0.03121173
0.00889765 -0.01288690 0.03115019
0.00892147 -0.01288536 0.03110310
0.00893411 -0.01288462 0.03105022
0.00894116 -0.01288428 0.03099445
0.00895379 -0.01288353 0.03094157
0.00896083 -0.01288319 0.03088579
0.00896788 -0.01288284 0.03083000
0.00896373 -0.01288328 0.03076842
0.00897078 -0.01288293 0.03071263
0.00898343 -0.01288219 0.03065974
0.00899607 -0.01288145 0.03060685
0.00900871 -0.01288071 0.03055396
0.00901574 -0.01288036 0.03049816
0.00903957 -0.01287883 0.03045110
