ply
format ascii 1.0
element vertex 681
property float x
property float y
property float z
property uchar red
property uchar green
property uchar blue
end_header
0.5594630619733633 0.007621822860779212 1.0226346722981532 255 255 255
0.5567482922189302 -0.004735877527624119 -1.2818562728781648 255 255 255
0.5563482361140413 -0.06551227357416708 -1.1896479689459631 255 255 255
0.5544137985675236 0.14507424659422288 -1.2983644268024712 255 255 255
0.5529480305749045 0.3566427714035934 -1.417663262407571 255 255 255
0.6594330168175677 0.06549659450362506 -5.013973847730138 255 255 255
0.5600939076680816 -0.24006640208789093 -1.245236232024721 255 255 255
0.5653331832106077 -0.0970540104972177 -1.630253292840378 255 255 255
0.5552079546800163 -0.07499103820364113 -1.1343758223658165 255 255 255
0.2884151744008778 -0.6373613707131183 7.722174006149327 255 255 255
0.5496104189967164 0.26085661713976005 -1.1488701800643466 255 255 255
0.5498442215425692 0.30691369298218985 -1.2014175816433197 255 255 255
0.5513521130684291 0.20351150548178001 -1.1959459902595073 255 255 255
0.558866610391697 0.009863559078803022 1.0133671802342434 255 255 255
0.5525414500044521 0.34160090928362985 -1.3753212302545241 255 255 255
0.5592968238998506 -0.11736143904164144 -1.3350253948364112 255 255 255
0.5619630019671871 -0.09254753037299149 -1.4712719966014933 255 255 255
0.3490478474564375 0.4970485860079613 4.491796700717117 255 255 255
0.5082064926815479 -0.26217358247846 1.2565633700273495 255 255 255
0.5530846559330698 0.031375700712010735 -1.1477232029598514 255 255 255
0.5603777061307074 -0.05095290933909348 -1.4293685219627688 255 255 255
0.5593566943028893 0.28022819414672456 -1.6723382075648225 255 255 255
0.5594213247871984 -0.2650841168327418 -1.1758826114123653 255 255 255
0.5587776280940754 0.16852805680049207 -1.5496233744663162 255 255 255
0.56787129810162 0.8417504587835932 -2.5661515629976326 255 255 255
0.5586148992882738 -0.006567334942348722 -1.3955818815227319 255 255 255
0.5571606787902682 -0.05863362064300328 -1.2398890032471546 255 255 255
0.5670460303956284 0.7443082712722682 -2.4397948683000292 255 255 255
0.6574583491997406 -0.2360517177220549 -3.276220519544387 255 255 255
0.41587680066235316 -0.5952542784726618 3.792434202125603 255 255 255
0.5573180915933633 0.34453957620770226 -1.6199858004119778 255 255 255
0.5636127530501713 0.18683944256017818 -1.7762388654405157 255 255 255
0.5636425468860053 0.09844730834148704 -1.7506571759245195 255 255 255
0.54729525591404 0.2989616573992641 -1.077382078944337 255 255 255
0.5778518536627354 0.8101710256191235 -3.016793949237679 255 255 255
0.5608740413738293 0.18073685595255418 -1.639946209401546 255 255 255
0.5590423711331928 0.3228610926301657 -1.6796808503709242 255 255 255
0.6264460949998877 -0.22489643220385402 -2.4398344898672844 255 255 255
0.5472032978909968 0.30472055550571064 -1.0748002831629693 255 255 255
0.5556527454249921 0.08819272238761974 -1.317050635154705 255 255 255
0.571659779555288 0.8295065152256098 -2.723577534783147 255 255 255
0.5492545667594216 0.18864210967643255 -1.0823161212429337 255 255 255
0.386250066030227 -1.6295482278006992 5.24469991446155 255 255 255
0.5561598128187011 0.0928981669637319 -1.3397062003634328 255 255 255
0.5563847286325818 0.5995101798179666 -1.7904219398674661 255 255 255
0.3656753509546215 -1.207190154791818 6.203316036461577 255 255 255
0.55988832558076 0.6250752415451183 -1.9888769373091744 255 255 255
0.8402527259043269 -0.565464186894296 -8.142720570302346 255 255 255
0.5545381229641393 0.3217224054337973 -1.4494225732310748 255 255 255
0.5491195479382455 0.25279749993869227 -1.1259915802766127 255 255 255
0.5079007215208583 -0.3914183972942605 1.374281541483338 255 255 255
0.5678056520685606 -0.30678288734701625 -1.57242847870015 255 255 255
0.5574337923614916 0.08001805412354777 -1.385814802808093 255 255 255
0.5486715700287956 0.2379490639745311 -1.0913956398159004 255 255 255
0.5553207673585356 0.2482507102515676 -1.4322183130178467 255 255 255
0.4959865942061956 -0.219089837352821 1.8175778086479886 255 255 255
0.559589910177495 -0.035110271820650234 1.0152361964152226 255 255 255
0.6976728375529834 0.30463366645760703 -6.076742510924751 255 255 255
0.6571200779212102 -0.24544559660792836 -3.264228788041107 255 255 255
0.557200892552277 -0.10661466852576598 -1.2161107730452891 255 255 255
0.5686472114773026 0.5575577557479726 -2.3620146677647416 255 255 255
0.5613508814997912 -0.28345874799608234 -1.2628403545245146 255 255 255
0.5540670057139522 0.23610845513198633 -1.3329977967316808 255 255 255
0.548388249686795 0.2462896125225153 -1.0746427004541916 255 255 255
0.6436273788116207 -0.6280612407650923 -2.5136411923140414 255 255 255
0.5578421148369556 -0.17438371779990797 -1.176173933350506 255 255 255
0.4951786709763412 -0.3785293340674471 2.0158163689325757 255 255 255
0.563189042216052 0.6792890552766085 -2.193283671570337 255 255 255
0.5691112364264237 0.5454143814735501 -2.363318708667069 255 255 255
0.5573441254898173 -0.078037298270417 -1.2502738865056036 255 255 255
0.556727762853437 -0.10483647802202553 -1.1873796025915666 255 255 255
0.5526203038165141 0.16035898864067638 -1.2215865183609869 255 255 255
0.5627586275938294 0.389687035643778 -1.9300255076639514 255 255 255
0.5583339683565686 0.11980008521471973 -1.4617910208733478 255 255 255
0.567862629280004 -0.09203484907463477 -1.7383441144792144 255 255 255
0.6754115594433425 -0.27649710188522536 -3.748729430143426 255 255 255
0.5055966900528627 -0.2979154078157729 1.4150581226165109 255 255 255
0.5608389613741626 0.22054439553430313 -1.663582233126377 255 255 255
0.5653331832106077 -0.0970540104972177 -1.630253292840378 255 255 255
0.5609451808230427 -0.25004811437968943 -1.2912769656257477 255 255 255
0.5044509559359945 -0.46872415669134143 1.6016928869582974 255 255 255
0.5504635408619475 0.32749864740082574 -1.2516422573028088 255 255 255
0.5580824961745324 0.05951492208236868 -1.4090458899722513 255 255 255
0.5636075388220015 -0.15845328788162943 -1.4890705875585872 255 255 255
0.5531999064705653 0.1703853566272132 -1.28381947905862 255 255 255
0.5574579202772512 0.6320110532047238 -1.9011241887853578 255 255 255
0.5602096690922893 -0.08417066093077079 1.011694793484089 255 255 255
0.5053780847382342 -0.45014575746940183 1.558599767708923 255 255 255
0.5587776280940754 0.16852805680049207 -1.5496233744663162 255 255 255
0.565718200603201 -0.1317734917752997 -1.6152006663146488 255 255 255
0.56026040590008 -0.27462122949736145 -1.2079489343995145 255 255 255
0.5789335761384834 1.0312450935319257 -3.2354762798380583 255 255 255
0.562833978637155 0.031152713719801745 -1.6090354463819003 255 255 255
0.5675533754481851 0.2603645688684529 -2.034015944952986 255 255 255
0.5508907355180886 0.20210411562366373 -1.176799113324879 255 255 255
0.2884151744008778 -0.6373613707131183 7.722174006149327 255 255 255
0.7902935608798656 3.108435199419907 -10.18702674800446 255 255 255
0.5637381757607729 0.4029367031101813 -1.965891713356439 255 255 255
0.497043611197025 0.030108989921289787 1.5461021877677665 255 255 255
0.20507921161835685 0.767377882566627 8.622611984780685 255 255 255
0.5712546624555703 0.9060642611801004 -2.77772045340041 255 255 255
0.49593284070879395 -0.6109612196664381 2.1505578678749844 255 255 255
0.5514419428141399 0.2064059282970129 -1.204043259790258 255 255 255
0.5822746110741205 0.731512673090439 -3.1711655849238958 255 255 255
0.5564551488911492 0.49579602459420813 -1.7014263835295822 255 255 255
0.5088060946398927 -0.30499098589909285 1.2624930484552581 255 255 255
0.5561598128187011 0.0928981669637319 -1.3397062003634328 255 255 255
0.5767953684085414 0.6626733743165302 -2.863705632639676 255 255 255
0.5479549098025125 0.28154305361663584 -1.0841853758914108 255 255 255
0.5552977682382498 -0.0621912502000063 -1.142802075760427 255 255 255
1.713255806618358 -3.023811996760439 -30.834012705710435 255 255 255
0.5556908987277175 0.10475291967770144 -1.3307003827209043 255 255 255
0.5080462503540417 -0.31816682502171384 1.3117724118284562 255 255 255
0.5730894015949398 0.6198968104848327 -2.6591189483045414 255 255 255
0.5685952426969496 -0.10853926505401999 -1.7731408952329206 255 255 255
0.5510990609146449 0.15185884199133845 -1.1482055049139854 255 255 255
0.5570636130763772 0.5132911105841256 -1.7673889577323278 255 255 255
0.5046779418800881 -0.4396449065476451 1.5943871468922304 255 255 255
0.5691428447902303 0.7858760893282325 -2.5467769278435295 255 255 255
0.503913925117974 -0.3648963896409772 1.552178337383473 255 255 255
0.5645442685777357 -0.22796079272264677 -1.5084227543706 255 255 255
0.32990211714203727 0.32727976488488575 5.427404725040597 255 255 255
0.5675175797050112 0.2550769974311014 -2.029772143383688 255 255 255
0.5657140445396551 -0.33034170345044583 -1.2467133078159964 255 255 255
0.49986546476137617 0.007046410479503027 1.421793112661585 255 255 255
0.5574789274523947 0.0358609567677408 -1.3657751139125327 255 255 255
0.5501648506420852 0.1831234993246491 -1.1232030606009848 255 255 255
0.6571200779212102 -0.24544559660792836 -3.264228788041107 255 255 255
0.5647014524183133 -0.26049583882394356 -1.4583502658801546 255 255 255
0.5653661064443262 0.6348118776634389 -2.242045160017096 255 255 255
0.4790928809065079 -0.03035352371816817 0.8806967697694988 255 255 255
0.5518449070257271 0.1550380606941407 -1.189137848910388 255 255 255
0.5590236928132611 0.06403722948872669 -1.4388039515652153 255 255 255
-1.3238359576253522 -11.07501476177444 66.08324214038609 255 255 255
0.5595390806315327 -0.2673852056077057 -1.1736630648984776 255 255 255
0.0005307682603048691 1.003230271163958 14.134449752719869 255 255 255
0.5561583872264834 0.2589615751338196 -1.5046984015843623 255 255 255
0.6545078440623683 -0.6694077176516127 -2.9211845381209303 255 255 255
0.6564937911751972 0.46224909451705926 -5.162383746254776 255 255 255
0.560842980768588 0.18661165848599856 -1.636175089272781 255 255 255
0.5580201212315087 0.05508452340692152 1.011085162355594 255 255 255
0.5037079620128236 -0.06423389551974124 1.3109698694926304 255 255 255
0.5080462503540417 -0.31816682502171384 1.3117724118284562 255 255 255
0.5663246412533858 0.04769225600989646 -1.803869452885809 255 255 255
0.5653313108607927 0.7228053155372463 -2.321637531186216 255 255 255
0.5675641648760539 0.2654164137294124 -2.03766984319318 255 255 255
0.6505065298044543 -0.6514285146794271 -2.7871378525093755 255 255 255
0.6162757131272204 -0.019315752532396157 -2.8048068564122097 255 255 255
0.5589331640349049 0.20730114522569826 -1.5820363524678007 255 255 255
0.5602836280924758 -0.08107575308594243 1.0165407447074042 255 255 255
0.5575239399827987 -0.25059361809283515 -1.0892346281635552 255 255 255
0.37520533396798345 -1.1130188692082181 5.847788053437612 255 255 255
0.559498817455016 -0.04629738918341761 -1.3886710114026013 255 255 255
0.550894823733719 0.2746068138098012 -1.2310771966006293 255 255 255
0.6461403613346804 -0.21352397603993564 -2.9821769466897896 255 255 255
0.5483193255020976 0.36877647255761375 -1.179985722542109 255 255 255
0.5024356453080462 -0.005552766865815295 1.322176955415518 255 255 255
0.5538392694165764 -0.04199729030781362 -1.1242664205649942 255 255 255
0.5656694532211648 -0.28586953051172537 -1.4805056018257512 255 255 255
0.5574563889629215 -0.010265047660299243 -1.3344203883630923 255 255 255
0.49862795532853793 0.051810060279405046 1.4578060330946303 255 255 255
0.499661069055385 -0.205216054746064 1.6468545112150466 255 255 255
0.5563100972028385 0.3444529251505276 -1.564785406677834 255 255 255
0.5520483644830645 0.21131151395103107 -1.227863160891269 255 255 255
0.5582611475520454 -0.1003599037832901 -1.2712807392516146 255 255 255
0.6652767761372758 0.04217808931412456 -5.240736077570362 255 255 255
0.780575055031676 -0.46538987721208364 -6.545311340095513 255 255 255
0.5531066320932321 -0.011377537736569836 -1.116397293604517 255 255 255
0.55962659949696 -0.26928595176859277 -1.1953432596307523 255 255 255
0.5024770187014083 -0.3586833135443942 1.6408453293116516 255 255 255
0.5563482361140413 -0.06551227357416708 -1.1896479689459631 255 255 255
0.5652272058011374 -0.12990417908535412 -1.588287648055482 255 255 255
0.5023236233345717 -0.4867770154862829 1.7382371487418196 255 255 255
0.5050176901858296 -0.4281754768049285 1.5608792426620763 255 255 255
0.4745732588001091 0.020534554494255126 1.8798483831693924 255 255 255
0.5649488763773662 0.1889339751322501 -1.859251635389212 255 255 255
0.5599503809281856 0.6141618177751171 -1.9896596961974848 255 255 255
0.5525778047364213 0.09229524344686843 -1.1697398660444795 255 255 255
0.5638544510342708 0.1859652745445873 -1.7908537671419953 255 255 255
0.5602884072175401 0.2901358087460561 -1.7073502562475174 255 255 255
0.5601294089406275 -0.2722740059966408 -1.2182504758105612 255 255 255
0.5559117786396605 0.39498296837864044 -1.6021742285416458 255 255 255
0.566469512815008 0.24518331192792736 -1.9846514970871183 255 255 255
0.5631152822185331 0.6759306596412898 -2.193820271410743 255 255 255
0.5614260488146194 0.29249655689414544 -1.7572664706219354 255 255 255
0.5492197335006147 0.3665476444510929 -1.2286699881322831 255 255 255
0.5594443020655091 0.6926781238419286 -2.026226085840963 255 255 255
0.27951616230807713 -2.852225240396069 8.973096735285717 255 255 255
0.5483207180043176 0.3707084525465262 -1.1758754943758007 255 255 255
0.3826148301371031 -1.0232963398438915 5.546807111649556 255 255 255
0.578569996828223 0.6703923606755752 -2.942540309431052 255 255 255
0.5595133115682603 0.055014849503005815 -1.4652859186706695 255 255 255
0.5506251280424046 0.400199754767027 -1.3491197044656584 255 255 255
0.4972947525137396 -0.5880149042035449 2.0721308700552807 255 255 255
0.180082750223544 -0.10210606411186411 10.820889818493475 255 255 255
0.6778752506797462 -0.3170964090690383 -3.7990119440044468 255 255 255
0.5571482093706329 -0.06533991535681734 -1.2400300474951813 255 255 255
0.549894113852464 0.39221898887149675 -1.2933658296714776 255 255 255
0.5762128180303224 0.42910342906972704 -2.5944821955648956 255 255 255
0.5600338357200569 -0.008293407079576796 -1.4444927264536183 255 255 255
0.5659462853783961 -0.0997895493788246 -1.672762317248448 255 255 255
0.49738303063677497 -0.2169993872127481 1.7598385109985821 255 255 255
0.5082064926815479 -0.26217358247846 1.2565633700273495 255 255 255
0.7697038696484974 -0.44143668125588037 -6.271607708016962 255 255 255
0.5515689802936935 0.10637724815023153 -1.1458771270666563 255 255 255
0.2988451825743895 0.6588046684040468 5.698468714366224 255 255 255
0.556197000057246 0.07686164933320228 -1.3450188832604235 255 255 255
0.5594567897665799 -0.04889574405319489 -1.4012067502263814 255 255 255
0.5022524462130998 -0.47744898469320196 1.7298522619669061 255 255 255
0.5612587593842153 0.1752475670432547 -1.6583757373264503 255 255 255
0.5024356453080462 -0.005552766865815295 1.322176955415518 255 255 255
0.4530458538171786 -0.1325007688464118 2.9080379723732257 255 255 255
0.5006048120815924 0.042312161691844916 1.3848859430077893 255 255 255
0.5575280111337082 0.342450885979617 -1.6301266255807223 255 255 255
0.5647014524183133 -0.26049583882394356 -1.4583502658801546 255 255 255
0.5586247776882337 0.053338483711936696 1.0203926747463867 255 255 255
0.5564008781490878 -0.10551820904500558 -1.1801525875351186 255 255 255
0.6221801805094492 -0.020991628732812656 -3.4990462528442756 255 255 255
0.5700231583065193 -0.07754022279949478 -1.8829130357184434 255 255 255
0.5530065968113866 0.47397948458694045 -1.503082394821468 255 255 255
0.501046757987558 0.12062873246321089 1.2792419623490412 255 255 255
0.5587276457758288 -0.05017338727921943 -1.3662735736884513 255 255 255
3.3701086196502663 15.66254755811147 -92.85228362114388 255 255 255
0.5604381485661085 -0.2005531593076918 -1.299708364857878 255 255 255
0.5050176901858296 -0.4281754768049285 1.5608792426620763 255 255 255
0.5573180915933633 0.34453957620770226 -1.6199858004119778 255 255 255
0.5610111262357607 0.16834097312642657 -1.647778532847684 255 255 255
0.5475585886480319 0.3506187794834575 -1.1499076799697 255 255 255
0.499661069055385 -0.205216054746064 1.6468545112150466 255 255 255
0.5578123644565978 -0.1471615677660582 -1.194361542519468 255 255 255
0.5677949509152787 0.831205158156597 -2.5620501644126508 255 255 255
0.5496324770799983 0.1743316131708105 -1.086339311926847 255 255 255
0.554878879517826 -0.0036405593668176308 -1.1881864004736462 255 255 255
0.7106639205844869 -0.4210680209527227 -4.643216835597963 255 255 255
0.561209592447495 -0.16042262681852595 -1.3718635307024876 255 255 255
0.5739094022908666 0.6016318673250518 -2.6130620597026937 255 255 255
0.5595978001620178 -0.14672974508916428 -1.292246635162722 255 255 255
0.6404285623931526 -0.20503966509435795 -2.7942557896540103 255 255 255
0.5589170015280164 -0.053876554472613414 -1.3663560956354155 255 255 255
0.22191112349386063 -3.5145601268902036 11.044675857741687 255 255 255
0.5574789274523947 0.0358609567677408 -1.3657751139125327 255 255 255
0.5601749602032975 -0.1566461971522588 -1.3229609706924284 255 255 255
0.47487973111736537 0.010584921176735805 1.88437975684916 255 255 255
0.6280790089110748 -0.22727758438510529 -2.474576251808711 255 255 255
0.556743216545023 0.2637993392563398 -1.5396695552545139 255 255 255
0.5623647345313446 -0.2099168809234188 -1.3979293457460196 255 255 255
0.5545237601365495 -0.04029675608766358 -1.1385948608565493 255 255 255
0.5515153638322453 0.216076328392965 -1.2112265037189813 255 255 255
0.5500983472202203 0.31264568665243786 -1.2381987677125212 255 255 255
0.5538185505493061 0.14126668250280497 -1.2826342814312373 255 255 255
0.5554386241567345 0.48610797416299534 -1.660964897780505 255 255 255
0.49726610671958404 0.02160345542739435 1.5468325167256476 255 255 255
0.5574579202772512 0.6320110532047238 -1.9011241887853578 255 255 255
0.5052892179361915 -0.2878945732276323 1.423237591182934 255 255 255
0.549966354473128 0.3042968674580592 -1.207859765795508 255 255 255
0.566447092767879 -0.07880297310483644 -1.6995434226757158 255 255 255
0.504644044463796 -0.20240828590705637 1.395630322618221 255 255 255
1.292820166225101 1.1528487111684602 -26.040496595718444 255 255 255
0.6976728375529834 0.30463366645760703 -6.076742510924751 255 255 255
0.4956684054623895 -0.22516730448133007 1.8610476864415184 255 255 255
0.011547582053750042 0.9247162468569149 13.86510290497088 255 255 255
0.5096339959001723 -0.41493907682338504 1.323110796483441 255 255 255
0.5594944781348156 0.22030425675430645 -1.6196117051917027 255 255 255
0.4923316063818554 -0.3981288326026551 2.151016852980746 255 255 255
0.5051158934352143 -0.03937924887417819 1.20588842664025 255 255 255
0.5027341794222762 -0.5796884659653161 1.7908901183432282 255 255 255
0.5505403060692972 0.20077821353941097 -1.15990471995797 255 255 255
0.5477256440431343 0.36279494188321865 -1.1461348341137791 255 255 255
0.5615662719179682 0.5412594514561035 -1.9800024212995475 255 255 255
0.5582611475520454 -0.1003599037832901 -1.2712807392516146 255 255 255
0.6277642944161745 -0.21671040544799486 -2.4686695148879445 255 255 255
0.5505219724369342 0.3174120704862541 -1.2685104732807786 255 255 255
0.5574498757981683 0.4157397265716687 -1.6831433122036772 255 255 255
0.549727517896794 0.22788120588962663 -1.1317725653666877 255 255 255
0.5524194162722561 0.21619414608146895 -1.2761563303501828 255 255 255
0.5585238117226731 0.03835592978147826 -1.4058205652444047 255 255 255
0.5602949788668918 -0.05366719984717862 -1.426900416693148 255 255 255
0.5474338277566047 0.298216400094224 -1.0840519896795424 255 255 255
0.5573987717196238 0.19454143347098263 -1.5114805270945642 255 255 255
0.5616485093193094 -0.25795340342164397 -1.325771542886314 255 255 255
0.5527176269275798 0.20020163668921556 -1.2795224769052047 255 255 255
0.5582100159982722 0.1840895644266218 -1.5082238962102608 255 255 255
0.5062711290288056 -0.4244803907854745 1.49728962673303 255 255 255
0.5577884946416489 -0.24954686035982263 -1.0997527511151317 255 255 255
0.5492389689531343 0.24341123016914773 -1.124286320281541 255 255 255
0.5594567897665799 -0.04889574405319489 -1.4012067502263814 255 255 255
0.5654494727613654 -0.13629849418815035 -1.6153054741250423 255 255 255
0.5552778590538517 -0.11177622380751866 -1.115125449082775 255 255 255
0.5561105628587477 0.18357972489151483 -1.4031321932712482 255 255 255
0.5742354241098327 -0.3831517835950192 -1.6231352110912785 255 255 255
0.704170926271282 -0.40675505717534 -4.4946041543239215 255 255 255
0.49593284070879395 -0.6109612196664381 2.1505578678749844 255 255 255
0.5590681750932261 0.06706750425354767 -1.4425025140108378 255 255 255
-5.48104305225209 -35.86462517955701 213.43507390692156 255 255 255
0.5680510618531216 -0.13096688256406747 -1.724802704230685 255 255 255
2.5121423357671904 -0.7208260147962797 -65.6836832882354 255 255 255
0.5579265781007735 -0.137002799898404 -1.2138247137745912 255 255 255
0.20929912325442723 -0.991785091626255 11.081923147434495 255 255 255
0.5570413720071195 -0.049349449316282726 -1.2770853197267755 255 255 255
0.5659999301674741 -0.23486684851854855 -1.549372603883847 255 255 255
0.5665265510346661 0.05432291859892708 -1.7963203225554172 255 255 255
0.549727517896794 0.22788120588962663 -1.1317725653666877 255 255 255
0.5531934957202757 0.2883520268572018 -1.3609466800509586 255 255 255
0.5598101046899415 0.5073534112750477 -1.8771238582508378 255 255 255
0.5002242681249552 -0.13012150784367435 1.5490939458198827 255 255 255
0.5647462072861744 0.7614221774280726 -2.350543424782021 255 255 255
0.7145470641757969 -0.44539646729700566 -4.742235187399869 255 255 255
0.5580972017726914 0.5774845641722204 -1.8516738162082285 255 255 255
0.5562418592700407 0.18621872715254187 -1.4396424416747515 255 255 255
0.5590584323514116 0.2805033795975328 -1.6571874167052507 255 255 255
0.5767953684085414 0.6626733743165302 -2.863705632639676 255 255 255
0.5641167766783978 -0.2219194828463273 -1.4989290161513986 255 255 255
0.5625480862463393 0.4814969100325799 -1.9766926715340074 255 255 255
0.5584616040524535 -0.18508780326453197 -1.2021088330997427 255 255 255
0.5526797807085155 0.16241939595799967 -1.240640045410251 255 255 255
0.5069368123389713 -0.41080861355943044 1.441321773227961 255 255 255
0.5551053080458581 0.4146259891695653 -1.5484590407913954 255 255 255
0.703638961132283 0.3149981256374311 -6.29089245236405 255 255 255
0.5616759130617347 -0.08178308487541182 1.032180799110983 255 255 255
0.560812229874993 0.09076248963723475 -1.5989954575332261 255 255 255
0.49952358019649035 -0.07846410315326274 1.534162510170125 255 255 255
0.569417824177615 0.36356190395714405 -2.2174087423499 255 255 255
0.4940510867137696 -0.239461656848672 1.9373710265992978 255 255 255
0.5008776913283042 0.06391199886634703 1.334789401973257 255 255 255
0.4268761456270958 -1.1500580723751965 3.7596980220931173 255 255 255
0.5622384991619536 -0.24786281547970437 1.0074545981159055 255 255 255
0.5577541701368602 0.34338968952038607 -1.64335531351332 255 255 255
0.5624196843448078 0.5522736374988215 -2.0478439385066256 255 255 255
0.5746606253642125 0.6342203393653296 -2.7335943427301252 255 255 255
0.5658663321372246 0.5820724899132391 -2.212262171004101 255 255 255
0.56458167916259 -0.12899097312358315 -1.5683558242726165 255 255 255
0.55549449871499 -0.03234720605204463 -1.1873644162935184 255 255 255
0.500630361193701 -0.057501832650711945 1.4492392896951667 255 255 255
0.5579450322771445 0.19593785586314783 -1.5264382392650429 255 255 255
0.5623330664952637 0.5629993140460979 -2.055770495814555 255 255 255
1.6818451000476446 0.32931394490172117 -38.66150616688594 255 255 255
0.675397036948708 -0.29553090246632147 -3.7462985493013683 255 255 255
0.29259760780733834 -1.8713580873676567 9.01571768183736 255 255 255
0.6320320049004299 -0.17658832616757905 -2.628165267985357 255 255 255
0.5596567345642 0.2850032550512762 -1.6805173107391855 255 255 255
0.5630043554142099 0.05097764641405472 -1.616380327976244 255 255 255
0.5551053080458581 0.4146259891695653 -1.5484590407913954 255 255 255
0.5018238049381859 -0.17986217317794803 1.5117278327262795 255 255 255
0.5013432967271392 -0.38085128823175163 1.6963153160020865 255 255 255
0.5036500188970469 -0.11579934054406414 1.3655515337949176 255 255 255
0.5016887551841278 -0.14190267859933448 1.4772362111746917 255 255 255
0.5078768877794159 -0.4614868747780033 1.4457428830688055 255 255 255
0.5474338277566047 0.298216400094224 -1.0840519896795424 255 255 255
0.5616730429193589 0.2579288292130386 -1.7302509510123416 255 255 255
0.556760370751424 0.0551755143986002 -1.3364161507653 255 255 255
0.5611561640983064 0.06403054937790655 -1.5185094467905806 255 255 255
0.5034762761703009 -0.41702959146768237 1.627504946574687 255 255 255
0.5024186121961408 0.0030151218560506366 1.3194962024687977 255 255 255
0.49384133017220255 -0.3106944308976549 1.9999935532093713 255 255 255
0.5684544363633333 0.2888390367512689 -2.1173461506608167 255 255 255
0.5007027969448148 0.07226011864677916 1.3354840017168692 255 255 255
0.4960613686473697 -0.22632610510497272 1.8418995251011276 255 255 255
0.5616730429193589 0.2579288292130386 -1.7302509510123416 255 255 255
0.5601778683358295 0.470335867784323 -1.8653660286667715 255 255 255
0.49726610671958404 0.02160345542739435 1.5468325167256476 255 255 255
0.5013432967271392 -0.38085128823175163 1.6963153160020865 255 255 255
0.5600332537308852 -0.11306773455604358 -1.3464386139347686 255 255 255
1.3650927757132834 -1.9227347968404556 -21.85473045891084 255 255 255
0.49664768128083997 -0.6554910544043097 2.161620997625372 255 255 255
0.5551149464913647 0.42421338935374087 -1.558518535177353 255 255 255
0.49881679315321004 -0.416369259872431 1.861828436520672 255 255 255
0.4201555093227213 0.1950521674953949 2.984097425472704 255 255 255
0.5639859445316563 0.18733392850479122 -1.7970616994895878 255 255 255
0.4478043605431887 0.14717414446387977 2.2801272511343105 255 255 255
0.5684508246396851 0.8411595294852637 -2.5982663853510615 255 255 255
0.5639039751645406 -0.15943975649032865 -1.5080936846230149 255 255 255
0.5062601193096097 -0.42960161670963437 1.499616848581038 255 255 255
0.5554863822071385 0.333323504317219 -1.5564291946356759 255 255 255
0.5510687087060914 0.1337193530382846 -1.124769500100438 255 255 255
0.6441616235084967 -0.19761382795422644 -2.929401303597181 255 255 255
0.4793125146461301 -0.08054369288084258 1.8044615950044707 255 255 255
0.564982722119004 0.6236486547208883 -2.2299776507110507 255 255 255
0.5757379278980097 0.9867014141967297 -3.044091747888848 255 255 255
0.5072955124661479 -0.4031519284315911 1.4203138047002728 255 255 255
0.4972110010110598 0.011972689599630607 1.5687767336195488 255 255 255
0.5613066287613961 -0.2567272363021138 -1.2944686858435366 255 255 255
0.5064604646178926 -0.4286860013057174 1.483743118677239 255 255 255
0.5736353894225364 -0.35684483678711865 -1.7899502851399098 255 255 255
0.7727895341008273 0.6285777461372698 -9.74499676927365 255 255 255
0.6349635098893766 -0.25261811416018 -2.6633730886619236 255 255 255
0.5568167145085187 0.15163526382435621 -1.420660601860355 255 255 255
0.81781445094384 3.3802347020326877 -11.371159312816447 255 255 255
0.5616271610936789 -0.159117709270436 -1.4013206747971274 255 255 255
0.5604294465348207 0.05674265305567984 -1.5058405658145617 255 255 255
0.56268028167805 0.13490017877189353 -1.6911103623781607 255 255 255
0.5002364311357058 0.08962155123566297 1.3580567182233914 255 255 255
0.3876166720513082 -1.0012564852170147 5.329008662256796 255 255 255
0.566497208142752 -0.1410208911526866 -1.6828646102949474 255 255 255
0.5079440422586204 -0.39477415956646966 1.3960606696115252 255 255 255
0.5003300260687319 -0.31105923477622005 1.6884724888518194 255 255 255
0.5487768813065294 0.21949594119964308 -1.0819818320463375 255 255 255
0.37948066446703704 0.4062115176564669 4.018992919356497 255 255 255
0.5526203038165141 0.16035898864067638 -1.2215865183609869 255 255 255
0.5744837844222588 0.5075042302805178 -2.577446715426244 255 255 255
0.5010253683609273 -0.3891293932361595 1.729250555143066 255 255 255
0.559882793747132 -0.1157996917607636 -1.3681678792197869 255 255 255
0.5535705170280546 0.3826276422274395 -1.4492773676681816 255 255 255
0.5014690683566707 -0.5568263986936718 1.858712917576999 255 255 255
0.5016887551841278 -0.14190267859933448 1.4772362111746917 255 255 255
0.5073122350080425 -0.4832939109919134 1.4914093374746342 255 255 255
0.5694999690356161 -0.1998565259607204 -1.7531359850535273 255 255 255
0.5010029956264038 0.05542934800049804 1.3332536764621812 255 255 255
0.4608333483894713 -0.011260029601628458 0.8724024165928455 255 255 255
0.5676025275463682 0.8504239697853717 -2.553066259634804 255 255 255
0.5000441861289396 0.1134827332614449 1.32181088739291 255 255 255
0.3369048141882432 -2.222759134334358 6.976277466368236 255 255 255
0.5628720788486302 -0.2919642876832933 -1.2499000765637802 255 255 255
0.6509988810995482 0.2650278285504685 -4.753130795854377 255 255 255
0.5013836646828881 0.08337355853802546 1.2882755668126198 255 255 255
0.44031191189803326 0.2237346815558869 2.4535723403770184 255 255 255
0.5643550364714295 0.06043644886977282 -1.710568184759981 255 255 255
0.5700680061412299 -0.3533996920374874 -1.6097096465452045 255 255 255
0.23123428184679398 -1.3927690888359394 10.996087259760074 255 255 255
0.5582906165829786 -0.021165925863695773 -1.3323483548528965 255 255 255
0.562833978637155 0.031152713719801745 -1.6090354463819003 255 255 255
0.39893792756748686 -1.472657555499488 4.7478672249638345 255 255 255
0.7513826512381672 0.6208023396947621 -8.967570654651201 255 255 255
-0.530839165216183 -1.9603067847949196 36.66571201716727 255 255 255
0.6349635098893766 -0.25261811416018 -2.6633730886619236 255 255 255
0.49896089616985795 -0.4141019456021381 1.8358419243457147 255 255 255
0.5591193068025351 -0.2350592088282929 -1.2169146623446023 255 255 255
0.5079930157207843 -0.35270308713288506 1.3446933445348503 255 255 255
0.5023236233345717 -0.4867770154862829 1.7382371487418196 255 255 255
0.561632203753788 0.685837600931097 -2.100506319360928 255 255 255
0.47037273305943855 -0.11132029760616909 2.4229923397316093 255 255 255
0.5530768337884826 -0.044940289065107594 -1.0717788319855697 255 255 255
0.6844407713359786 0.22223129828563043 -5.629813709386893 255 255 255
0.5630111206087701 -0.16252333028272337 -1.4776457726388639 255 255 255
0.5526504251889727 0.29402879520157965 -1.3382753768769426 255 255 255
0.7470486237267682 2.5942478483064537 -8.466443247761589 255 255 255
0.5539968295980544 0.36570770653837076 -1.4752163493335688 255 255 255
0.3002154043843094 0.5624146874702691 6.136565040392167 255 255 255
0.5530252001781222 0.18412214918768033 -1.271754170593575 255 255 255
0.55802612312103 0.6194718723181929 -1.8891789762848745 255 255 255
0.5553175225378996 0.571974578276703 -1.70558561879963 255 255 255
0.7106639205844869 -0.4210680209527227 -4.643216835597963 255 255 255
0.49737423969913896 0.014795313837556244 1.5501516079709046 255 255 255
0.5034762761703009 -0.41702959146768237 1.627504946574687 255 255 255
0.49322657925258145 -0.7413083606536852 2.403343205744968 255 255 255
0.6084463977695762 -0.041174599897012 -2.537347293485626 255 255 255
0.5510687087060914 0.1337193530382846 -1.124769500100438 255 255 255
0.5793430739207968 0.9363730861937201 -3.181767379734403 255 255 255
0.499752848557804 -0.21808767910113974 1.632614279066321 255 255 255
0.4608931359717208 -0.5295396083306556 2.9500902986374693 255 255 255
1.9850267447100967 4.090226384321887 -50.849733777384955 255 255 255
0.49592141024146197 -0.5923513442911928 2.145105851569778 255 255 255
0.45644007459180813 0.13531551255005322 2.043675097703258 255 255 255
0.5003523167616185 -0.04389702284053222 1.4511619729505931 255 255 255
0.6708442776326039 -0.24462277025296175 -3.635686353806662 255 255 255
-1.6340927127465332 -5.965397656493597 75.56063859190046 255 255 255
0.5521448448095702 0.19146847320900337 -1.2181576520208195 255 255 255
0.558438645198584 0.2740324964007425 -1.6288791990588842 255 255 255
0.5583256001325556 0.265451646245082 -1.607337937653582 255 255 255
-1.3671983172809257 -0.5292378536928222 63.75531342811118 255 255 255
0.5599758136050832 -0.056735059042842595 -1.4124230142639806 255 255 255
0.39661847796492655 -1.5501907886808073 4.372346309096525 255 255 255
0.5609980718334767 0.2968646374162327 -1.7551472949696787 255 255 255
0.4977797881937927 -0.5782370595386641 2.033684896658696 255 255 255
0.498806537080693 -0.42086145444931433 1.837184725141634 255 255 255
0.5013330003885628 0.11436210967167325 1.2817895732096365 255 255 255
0.5000420060141795 -0.03700591819215333 1.4747003703066266 255 255 255
0.41240382118354446 0.22275120085800654 3.212592862255299 255 255 255
0.5564345567576287 -0.11325243623358833 -1.1684678783989382 255 255 255
0.5557367053668568 0.3180301090619534 -1.508091253519926 255 255 255
0.45396508381409073 -0.02323871603121104 2.96064155404355 255 255 255
0.47387042127228074 0.0358273984988082 1.9030034704057257 255 255 255
0.14342528172571506 -2.8229679151188782 14.507038249436581 255 255 255
0.5625207573991781 -0.2230009805920593 1.016566336816975 255 255 255
0.5495482275362799 0.2409539588237292 -1.132519340155634 255 255 255
0.5000108939224515 0.11819543828158866 1.3301743246231508 255 255 255
0.5723536518771208 0.6044117607087072 -2.572195946261679 255 255 255
0.5475514632986844 0.2910999504204207 -1.0819116387026357 255 255 255
0.5559318404689798 0.5558525748068911 -1.7470398732403203 255 255 255
0.5616266230990273 0.3793092390767776 -1.852584917954662 255 255 255
0.5722595059780576 0.4830970543348343 -2.4610351676284394 255 255 255
0.5902285254394877 1.4666758619463764 -4.158562672465548 255 255 255
0.5511805208765244 0.205095101085196 -1.1931424737301437 255 255 255
0.2689871394797248 -0.8615967555964767 8.49877986427379 255 255 255
0.4375531652135125 0.20598308307060967 2.5203038585290853 255 255 255
0.5086624006140626 -0.5004644827224457 1.4392243800914941 255 255 255
0.5586063736001889 -0.010881550531654231 -1.379351074626776 255 255 255
0.46665056557684825 0.03397122893109337 2.466201745693244 255 255 255
0.5674952542301552 -0.18864327916232704 -1.6693289935918543 255 255 255
0.5520535321040495 0.3417495808076332 -1.3648481453861805 255 255 255
0.5591701493796899 0.08918291901841058 -1.5135924717243043 255 255 255
0.5663360525372805 0.0722605877401226 -1.7895743346275075 255 255 255
0.6971166370732262 0.2713217372144829 -6.052844858875041 255 255 255
0.5592571028501426 0.15390632864583112 -1.5579509846405757 255 255 255
0.5684156323573377 0.2619483826756327 -2.0668738552082173 255 255 255
2.2189644052548423 0.5488761886217918 -56.71892402927846 255 255 255
0.5549328019603117 0.4708379881237317 -1.6106827924140545 255 255 255
0.5052892179361915 -0.2878945732276323 1.423237591182934 255 255 255
0.6509988810995482 0.2650278285504685 -4.753130795854377 255 255 255
0.5062711290288056 -0.4244803907854745 1.49728962673303 255 255 255
0.5667768909555755 0.3402803753856462 -2.0575669995786194 255 255 255
0.549672602059528 0.1884071056941068 -1.0992839810574873 255 255 255
0.5046944992566075 -0.43553421101570683 1.5761260048198844 255 255 255
0.5672570905531646 -0.221431336945979 -1.6131624726235274 255 255 255
0.4959477572608388 -0.3636587084194946 1.9503517841827334 255 255 255
0.5499600485489559 0.27345489658028543 -1.1926365276195292 255 255 255
0.5661145316415077 -0.1340560471244359 -1.6673584670233996 255 255 255
0.5012677504678565 0.04738979582902993 1.342849917020517 255 255 255
0.5562173625133915 -0.021070837825181623 -1.241500914380512 255 255 255
0.5512402770345931 0.12972220983456367 -1.1444712251998905 255 255 255
0.3670512258631602 0.2944711249572659 4.462247528423285 255 255 255
0.5720660210142945 0.6076282666626508 -2.590889710231348 255 255 255
0.5638834763689672 0.729721161311676 -2.2668211545500685 255 255 255
0.5625939241975594 -0.14358314343049278 -1.4555386284386846 255 255 255
0.506428244507768 -0.4203383802651667 1.459412308479385 255 255 255
0.5560489924874932 0.1039597998611809 -1.3436897330666062 255 255 255
0.6308363005080826 0.16168915691550728 -3.9814512856921698 255 255 255
0.6971166370732262 0.2713217372144829 -6.052844858875041 255 255 255
0.5025409640805117 -0.012091366149143709 1.3224487568758205 255 255 255
0.5078908683921931 -0.34318576084124575 1.344589689514956 255 255 255
0.5001992970870163 0.04715981748013148 1.404942593155329 255 255 255
-3.5747090374983923 -1.3242267003309782 138.17881204085717 255 255 255
0.4196212208275976 -0.9470428018895165 3.798193620661228 255 255 255
0.5043521170532773 -0.005171338676642783 1.190178466591546 255 255 255
0.5530786573527351 0.4095413139993665 -1.4338312569068585 255 255 255
0.5706424397599464 0.0597635069111176 -2.0174029579891624 255 255 255
0.4989903891217501 -0.26800457684503487 1.7331232195810016 255 255 255
0.49670295146074733 0.04376435582371413 1.525031376895875 255 255 255
0.3870730521079573 0.39781815866274145 3.4953451479012805 255 255 255
0.3081703553375804 0.4240658286795164 5.984939958006902 255 255 255
0.5041256898097877 -0.028073655386180157 1.2490309664216233 255 255 255
0.502441481847104 -0.17703525037420914 1.4750681518544204 255 255 255
0.5590681750932261 0.06706750425354767 -1.4425025140108378 255 255 255
0.683959860050816 0.23536822873370364 -5.587073595014304 255 255 255
0.5556657326644647 0.33962507937761205 -1.5444437448648485 255 255 255
0.5620364912541731 -0.23492780951074982 1.00737714262643 255 255 255
0.49664768128083997 -0.6554910544043097 2.161620997625372 255 255 255
0.7822040540082209 2.9675694880347008 -10.14214948774865 255 255 255
0.5507879887315369 0.41104741997121397 -1.3534712405174494 255 255 255
0.50444821097132 -0.5591400512726176 1.70881879523405 255 255 255
0.6478260949792285 -0.29597316935317247 -2.989517246803345 255 255 255
0.5022772233000088 0.009776971348256535 1.3279703828140188 255 255 255
1.9850267447100967 4.090226384321887 -50.849733777384955 255 255 255
0.5002517322695792 -0.5262783925654552 1.8664591010876197 255 255 255
0.5648439054137739 0.5105941253029382 -2.136855902171013 255 255 255
0.4917644107370269 -0.3920747004980848 2.1748493587292437 255 255 255
0.5039278649014681 -0.1628643493837028 1.3802202637152672 255 255 255
0.5646799336013982 0.2372846798960764 -1.8696234839541186 255 255 255
0.49896089616985795 -0.4141019456021381 1.8358419243457147 255 255 255
0.2667422541349922 -2.0008571734113287 9.965123991431465 255 255 255
0.10334720716631791 -0.11371427824343372 13.678231252932022 255 255 255
0.5047837956332222 -0.19201067049167372 1.3572235132030943 255 255 255
0.5021626657980279 -0.44376854882955186 1.7217082998560078 255 255 255
0.5547925215461029 0.3739126682769371 -1.5364402274961229 255 255 255
0.5571658100435979 -0.07203859561521475 -1.2609383057013366 255 255 255
0.5551002484640493 0.03533171247080605 -1.2514894262564284 255 255 255
0.5066021686400465 -0.5784566974013924 1.6196777469749308 255 255 255
0.29607360443131875 0.3693851803382288 6.31731861367777 255 255 255
-0.030789790999460737 1.1231973302558214 14.962682184931387 255 255 255
0.5101851585781987 -0.45216613801150607 1.3217358943401432 255 255 255
0.6303599783385831 -0.5438679594557082 -2.336861446950331 255 255 255
0.4606327532696903 -0.5006564129830268 2.9390352790514243 255 255 255
0.506157575577786 -0.41810893405417016 1.4881548727755707 255 255 255
0.5025625193181071 0.0071068113113951495 1.3125231270797317 255 255 255
0.5530566535296136 0.39520519136023163 -1.4328259062778756 255 255 255
0.5001489278329709 -0.3299527121583225 1.708645022245795 255 255 255
0.5525309477821102 0.014745342787339667 -1.0926968107804604 255 255 255
0.49604720189018436 -0.005283925194316086 1.6367629956841656 255 255 255
0.5736353894225364 -0.35684483678711865 -1.7899502851399098 255 255 255
0.5076282514292867 -0.4810725711155893 1.5151021070369795 255 255 255
0.5582687460272088 -0.1034734983320625 -1.2728081325433913 255 255 255
0.4994572108420295 -0.018156849538515415 1.466858347084818 255 255 255
0.5038685205510405 -0.40969218719850264 1.6061287168221334 255 255 255
0.5557306103108128 0.18226278155770984 -1.42026584042565 255 255 255
0.5596232940953298 -0.055234307439389965 -1.3897152692135033 255 255 255
0.6997569305068094 -0.292052529798397 -4.406752105115131 255 255 255
0.5474862282303061 0.35523244624402306 -1.1287802967247134 255 255 255
0.5562413237226814 0.08372763699931955 -1.3399459652538717 255 255 255
0.5902745126155697 1.4379467910498764 -4.135324733946563 255 255 255
0.5629233256377053 -0.2112375456178609 -1.4253122114497778 255 255 255
0.5503034366723626 0.4009389324321351 -1.3281570286378648 255 255 255
0.5552523852532204 -0.0573861319211183 -1.1535834670089367 255 255 255
0.5902285254394877 1.4666758619463764 -4.158562672465548 255 255 255
0.5482646102918179 0.23458931406119357 -1.0716313153686126 255 255 255
0.28637680532552534 -2.0766897681598033 9.315934129017654 255 255 255
0.37036310893272906 -1.1980288480935801 6.014470965817182 255 255 255
0.6778752506797462 -0.3170964090690383 -3.7990119440044468 255 255 255
0.5524396092864847 0.3281845006957831 -1.354966849799914 255 255 255
0.565468222364824 0.6671062087501589 -2.2618520543016407 255 255 255
0.56270960369393 -0.004869323923619018 -1.59435504722091 255 255 255
1.1459270534534036 0.8820795936025102 -21.008375118439293 255 255 255
0.5615662719179682 0.5412594514561035 -1.9800024212995475 255 255 255
2.273608473898551 5.805300014277454 -62.02328115165874 255 255 255
0.5004205205538415 -0.08031205692536643 1.5060840996248595 255 255 255
0.551090710428451 0.2626625208924254 -1.2258294895651594 255 255 255
0.5544211047907717 0.06906345367490392 -1.2221676402474233 255 255 255
0.5584321537598 -0.055559182516708015 -1.344869065688741 255 255 255
0.5475673543437974 0.2860394635757535 -1.0809941003845185 255 255 255
0.5537686205883797 0.3626897293502159 -1.4595892244877233 255 255 255
0.5571578041352384 0.564000541553579 -1.7942041896446568 255 255 255
1.901225677320034 14.971450654733003 -47.359672824132154 255 255 255
0.40693449228592665 -1.348249115641818 4.363252881973048 255 255 255
0.5045012431665246 -0.1584968269631011 1.3420147051585887 255 255 255
0.5684228188472554 -0.2355537295445552 -1.6388755087766032 255 255 255
0.5593250815719798 0.23133537664812 -1.6163649601812513 255 255 255
0.28475506277023377 -0.6698010697580251 7.826850715425752 255 255 255
0.5092438046347882 -0.4814386480675305 1.3916594179280215 255 255 255
0.5627762478490266 0.5578916253828761 -2.0549383387135682 255 255 255
0.5554805459241018 0.03436942108961947 -1.2676172815594122 255 255 255
0.10686212844965956 -3.0825506138079835 15.924631661631315 255 255 255
0.5019835873733794 0.01018226382522445 1.3168649566966881 255 255 255
0.4254454333139574 -0.26545844050657613 3.6832092455826606 255 255 255
0.5739187770645126 0.4222078421344499 -2.480821216214986 255 255 255
0.5631135520605227 0.5021804547304151 -2.0533413604835804 255 255 255
0.5490860378593437 0.2238740615333635 -1.092914862298844 255 255 255
0.503071745855247 -0.2182019882075574 1.4745883027074058 255 255 255
0.695364328849564 -0.45719743232083154 -4.052138810665949 255 255 255
0.5519259101174214 0.3411846864120336 -1.3539122805137527 255 255 255
0.47387042127228074 0.0358273984988082 1.9030034704057257 255 255 255
0.7513826512381672 0.6208023396947621 -8.967570654651201 255 255 255
0.5580379905503505 0.3528183362406225 -1.6683271989716706 255 255 255
0.5666194413266183 0.7204814136744004 -2.379855416126569 255 255 255
0.5028756372424044 -0.42221524438390773 1.649773917271075 255 255 255
0.4073766274093038 -0.5083249733612781 4.391495813150746 255 255 255
0.5559123471129382 0.17066765983015678 -1.3762084857373686 255 255 255
0.510169807323576 -0.3963338411176483 1.2756848848128757 255 255 255
0.5005919361295207 -0.24825872256921008 1.6346327292363005 255 255 255
-5.130568522086787 -11.530006177619615 195.6985897539802 255 255 255
0.295523445289522 -1.2523168018558732 8.476812308640154 255 255 255
0.5602121199668975 0.08769296645569769 -1.5542303104634554 255 255 255
0.5573882505058478 -0.10664705173027844 -1.2282426879089867 255 255 255
0.5533235228396173 0.29367028083275054 -1.3823046370693397 255 255 255
0.5806035819903699 1.2138420804667431 -3.4489495319392973 255 255 255
0.409989099327839 -1.1109137418073325 4.093917413898968 255 255 255
0.652742522461101 -0.17748816247904364 -3.4349195330167817 255 255 255
0.780575055031676 -0.46538987721208364 -6.545311340095513 255 255 255
0.5047961081980831 -0.41908828201063064 1.5485639241636937 255 255 255
0.5506037993863431 0.4106451715928538 -1.3292885958211902 255 255 255
0.37907643683572856 -1.363750007157421 5.8189538531897425 255 255 255
0.5012027658062281 -0.1767082320199047 1.5246656321803984 255 255 255
0.6977407528824259 0.32341657023124903 -6.1182606148912075 255 255 255
0.6607108323349423 -0.2398393858612656 -3.3638734081137844 255 255 255
0.5811008875525121 1.0713319178607499 -3.4000310382307455 255 255 255
0.5038677976912435 -0.36064505509395395 1.552640490133428 255 255 255
0.5041485127515904 -0.3865417850828393 1.5637711024048475 255 255 255
0.4530466834443632 -0.14103920807154702 3.080040242798749 255 255 255
0.8207218110061376 -0.5580861251333926 -7.627053542448238 255 255 255
0.5585373527529719 -0.2326231559210651 -1.1870560488388127 255 255 255
0.49994691523560847 -0.5347627983172836 1.898435646070403 255 255 255
0.5691507315940089 0.35488317136427516 -2.188575462022151 255 255 255
0.5678233630745516 0.5214883529209345 -2.278122422645927 255 255 255
0.5548454461244615 -0.04523252483466235 -1.137765913510038 255 255 255
0.5013513412626608 -0.2971228271115758 1.6273829487946496 255 255 255
0.5603521734143667 -0.1965012694001054 -1.299616932358667 255 255 255
0.4673222217072572 -0.07947732520975682 2.467594417388007 255 255 255
0.5640023932655119 -0.0608082907785324 -1.6050076004336888 255 255 255
0.46665056557684825 0.03397122893109337 2.466201745693244 255 255 255
0.5559006090150408 0.5902658338370901 -1.7598506386925115 255 255 255
0.5051574978016344 -0.6006923663937447 1.6930415860212344 255 255 255
0.1421261255428533 -1.2752686777405393 13.601927596347222 255 255 255
0.5557282590027631 0.17957412480989657 -1.3887021322008368 255 255 255
0.5581810194382393 0.5885901527023641 -1.8567284538599933 255 255 255
0.5515218490535772 0.13165999355725636 -1.1600308207876366 255 255 255
0.3890877531638681 0.32900874080572906 3.796527219628267 255 255 255
0.7375701886837259 -0.5827367234194233 -4.853841996010941 255 255 255
0.4584038941392783 -0.2736912123733844 2.9737156337031063 255 255 255
0.49708828874428646 0.02706976965159041 1.5589602789757646 255 255 255
0.5704289541177091 -0.35770492266316195 -1.6389518861651002 255 255 255
0.5048742828298217 -0.3878080067554407 1.5385729508742534 255 255 255
0.5541865878744273 0.31080285631596705 -1.4456573165191686 255 255 255
0.40070880633138756 0.23763693102996059 3.515636388618615 255 255 255
0.5063018189991246 -0.4440406416362246 1.5012159056829526 255 255 255
0.7834870011142354 -0.4902869738449799 -6.626698111996366 255 255 255
0.5646493482774578 -0.27653677358942524 -1.444959780688825 255 255 255
0.5508931390821765 0.162490252755938 -1.1337364458470904 255 255 255
0.49985112079254507 -0.45849226538470483 1.8434632075677682 255 255 255
0.5530566535296136 0.39520519136023163 -1.4328259062778756 255 255 255
0.5606058330128462 0.10513168943215077 -1.5740630687532873 255 255 255
0.5002364311357058 0.08962155123566297 1.3580567182233914 255 255 255
0.5037663842870344 -0.3493368692806883 1.573274711813111 255 255 255
0.5073208196718801 -0.4804283693333492 1.4968108836039622 255 255 255
0.33700107436837273 0.344422121467032 5.2005309828545965 255 255 255
