ply
format ascii 1.0
element vertex 671
property float x
property float y
property float z
property uchar red
property uchar green
property uchar blue
end_header
-0.6950987457924894 0.36298301141163897 -1.3339364333935415 255 255 255
-0.697628440689722 0.12887816943677782 -1.3574379225865534 255 255 255
-0.6788464034770959 -0.14299170270595316 -1.2702865656165145 255 255 255
-0.71200136942678 -0.07627960076856269 -1.468138718607032 255 255 255
-0.45705168941441043 0.23962547779445398 1.1401330176433817 255 255 255
-0.7206980233788022 0.37659828366390863 -1.5265476598082164 255 255 255
-0.45903376737218615 0.08229523870903398 1.110117430049121 255 255 255
0.2964225253420683 -1.4707844446558673 11.343581366518775 255 255 255
-0.4396622226986442 -0.04478120165511077 1.3398685601749583 255 255 255
-0.755214295738277 0.2464710823781123 -1.7890806673609416 255 255 255
-0.4219933773617816 0.15934035734071098 1.950359603527638 255 255 255
-0.4396196020818973 -0.2887125414196893 1.3172979772075766 255 255 255
-0.46806583055150713 -0.1634941261039095 0.9831652132041415 255 255 255
-0.43929840701883743 -0.02983239807618345 1.3424674369914766 255 255 255
-0.4766202334647165 -0.018625477846618062 0.8870229981067503 255 255 255
-0.7676762213017837 0.14775794429503777 -1.885446709704175 255 255 255
-0.469505523393222 -0.11486385438336146 0.9664511226711249 255 255 255
0.04842595361979287 -0.008902130548342168 8.310738319425687 255 255 255
-0.7176138356000977 0.14850449049779393 -1.5059352327207938 255 255 255
-0.44411065530035093 0.07916832621341854 1.285683368708702 255 255 255
-0.7890928349746097 0.31532266543108944 -2.0457632151483027 255 255 255
-2.457897994684023 8.937515037510758 -27.094640000630502 255 255 255
-0.6919543132976403 0.2038623142159349 -1.3121452882950242 255 255 255
-0.4729381683824532 0.1275968358081765 0.9457242972361222 255 255 255
-0.7890448724535638 0.6141406085417871 -2.0387190076495294 255 255 255
-0.7892704529640141 0.594897900418598 -2.0404962300930984 255 255 255
-0.740652432268528 -0.07821367219241615 -1.6849203053194155 255 255 255
-0.4598090058055516 -0.2906345862459487 1.0753638375122252 255 255 255
-0.4608260257964791 0.05682206546782771 1.0805059684418015 255 255 255
-0.47503673402092456 -0.1658091846120681 0.8976189035530827 255 255 255
-0.42855173296571586 -0.42317343669530844 1.4430573653866474 255 255 255
-0.6863630705784223 0.3153535939543417 -1.2682030086197038 255 255 255
-0.7551028894795669 0.25991824967572635 -1.7880610867355176 255 255 255
-0.7540751373755007 0.16605994340964897 -1.7827945382626136 255 255 255
-0.7731006777052783 0.04281910036068526 -1.9299469597876777 255 255 255
-0.4598090058055516 -0.2906345862459487 1.0753638375122252 255 255 255
-0.43652245696108094 -0.23423048096847812 1.3586662684897264 255 255 255
-0.4769405718647114 0.17727358434290486 0.8984460957460195 255 255 255
-0.7532534970885567 0.25234649469766185 -1.7749049747385397 255 255 255
-0.4580392188809022 0.042351190098019346 1.1164685065869306 255 255 255
-0.464734352489819 0.0545936324412063 1.0334258220169859 255 255 255
-0.9553184481083823 0.528403912814432 -4.88500296647945 255 255 255
-0.4437278330683805 -0.16395521257489487 1.2697458882715862 255 255 255
-0.7999857078992023 0.7464815078178746 -2.119085441456866 255 255 255
-0.6855252537915951 0.20580899226399177 -1.264185249800681 255 255 255
-0.6904610421543693 -0.024035882724366957 -1.3040491306398039 255 255 255
-0.6841320661767083 0.049863361137040194 -1.2581784977057366 255 255 255
-0.46468011479945337 -0.27725278344315357 1.0137820825825166 255 255 255
-0.45549656190151955 0.06495444647120092 1.1460896986733013 255 255 255
-0.7109065113022877 -0.07301055170174987 -1.461119142944224 255 255 255
-0.7045142144357665 0.23043021081525858 -1.4013804435437054 255 255 255
-0.44747240648330405 -0.2772082357178384 1.2223431947706354 255 255 255
0.694995820648776 1.2286327251704976 18.152883979700526 255 255 255
-0.46579293020740387 0.1443509414614458 1.03312992036846 255 255 255
-0.8649205919240321 -0.056384974934912374 -3.8341966511588526 255 255 255
-0.7930181000133804 0.6382524013584133 -2.068658080394149 255 255 255
-0.4597000441196541 -0.2795738156352352 1.076289960029534 255 255 255
-0.7089645388082492 0.2062737745513443 -1.439908160177122 255 255 255
-0.7113572645584322 0.20814260679980287 -1.4618172880321407 255 255 255
-0.7343994065931987 0.22557843179287465 -1.6322794086570063 255 255 255
-0.4119157642649724 -0.4090605120569707 1.648238474158882 255 255 255
-0.7769553825654812 -0.10355397670811242 -1.9630164489147237 255 255 255
-0.44333041671703133 -0.22295665536358322 1.2759076349632552 255 255 255
-0.4496443902163126 -0.27652019837494846 1.1948165189203992 255 255 255
-0.45509216657914936 -0.0912260883066679 1.1443693790503424 255 255 255
-0.4659198393420353 -0.23707608720556844 1.0055363013449645 255 255 255
-0.4311089463656889 0.4941542141032164 1.8871845830716774 255 255 255
-0.7042670760634211 0.18927219462298878 -1.4051262157915136 255 255 255
-0.4291163429741942 0.2008907911025926 1.8545151016360848 255 255 255
-0.8321634102843571 0.07470858834413051 -3.428433914278226 255 255 255
-0.462078898006484 0.15047323702066917 1.07471873841606 255 255 255
-0.4509540435072368 -0.020570882630254233 1.1988405801374526 255 255 255
-0.3678616107376551 0.2842397800089957 2.7448295599631285 255 255 255
-0.8712017556351406 0.8100424059068349 -3.857921987463353 255 255 255
-0.47796289811096954 0.10287818882921754 0.879917590934883 255 255 255
-0.7639830972121073 0.24930735141020516 -1.8571732482300107 255 255 255
-0.45629445735445795 -0.08339634651798623 1.1286090485407048 255 255 255
-0.4454277382616009 0.09727573751938988 1.269251458430453 255 255 255
-0.7042098175215821 -0.040571342380012955 -1.4048073234850547 255 255 255
-0.6989875164408111 0.021223349632648634 -1.3640340285092496 255 255 255
-0.7230272223528993 0.09606262656199543 -1.5487172927362136 255 255 255
-0.41589907566792644 -0.5066948072990358 1.5886962383241379 255 255 255
-0.7852337369136212 -0.10119594758884172 -2.8712546067361453 255 255 255
-0.7608839986806597 0.20002295603191822 -1.8325657892776637 255 255 255
-0.45488065621422785 -0.04155130660455552 1.1510744487526399 255 255 255
-0.7999857078992023 0.7464815078178746 -2.119085441456866 255 255 255
-0.4658402996675557 -0.2785496484209609 1.0037492187097772 255 255 255
-0.440664268312062 -0.02469567871502493 1.3228676408149305 255 255 255
-0.4597634298525619 0.055803740618739835 1.0949958485010682 255 255 255
-0.7213435956615524 0.05673076248256689 -1.5365796224860415 255 255 255
-0.774542126950529 0.17971089451307737 -1.9368893942561687 255 255 255
-0.7009668212512625 0.004475673508520242 -1.3791418526562325 255 255 255
-0.7369354924869841 0.5061660194934261 -1.6466367609226669 255 255 255
-0.36091584304540525 0.3231717090778267 2.8448716500177444 255 255 255
-0.4204931707116368 -0.3203120917666849 1.543486143670382 255 255 255
-0.4679187551103359 0.1859085975243975 1.0123523793862927 255 255 255
-0.7663100624706289 0.006977638279425176 -1.8767611959797323 255 255 255
-0.39695685650597934 -0.2893069732662909 1.8346034336494434 255 255 255
-0.7706223070777185 0.04827832986068854 -1.9128114580993352 255 255 255
-0.7039645391481683 0.4675924967174789 -1.398717045516225 255 255 255
-0.40959316362254683 -0.40010124791247975 1.6731884677191904 255 255 255
-0.34718903757861896 0.03740585769541008 2.6166706477291304 255 255 255
-0.7961465409368854 0.521207651383366 -2.0884801813695923 255 255 255
-0.7078653477842003 0.19399352624016689 -1.4331476100462792 255 255 255
-0.4737349293729285 -0.15981173783073996 0.9151515283717673 255 255 255
-0.46898141953915334 -0.31915804948517557 0.9603394367828544 255 255 255
-0.44604006728694384 -0.09373130192135098 1.2534367275569425 255 255 255
-0.7099603229874102 -0.01911302853855709 -1.4474568905191758 255 255 255
-0.45083457704172253 0.12307043279754963 1.2084956186653022 255 255 255
-0.7078653477842003 0.19399352624016689 -1.4331476100462792 255 255 255
-0.46209612876526274 -0.3368819167666581 1.0410145522987824 255 255 255
-0.43078913565490456 0.5342007526614867 1.9319931787630684 255 255 255
-0.47341372395472375 0.026468690358369643 0.9314101399759881 255 255 255
-0.46071194058553616 -0.24935382624111363 1.064837848503174 255 255 255
-0.6991046171363654 0.14509835467489016 -1.3669908255068373 255 255 255
-0.4600464040106045 -0.253608522881285 1.0735246246209778 255 255 255
5.215678702629707 52.03851874131449 187.71006763162268 255 255 255
-0.6958337996211879 -0.04517032773607451 -1.3446243398975692 255 255 255
-0.41328565586329835 -0.5418027714957317 1.617257183455429 255 255 255
-0.8993792374686687 -0.1862154193571267 -4.73717822954929 255 255 255
-0.7700773262916021 -0.023400202699592674 -1.9083577038707351 255 255 255
-0.6891834508332848 0.1428842345088047 -1.2941254558411115 255 255 255
-0.45643285815147466 -0.31629430312622464 1.1155877000425594 255 255 255
-0.7200481294367032 0.5266372654903898 -1.5189038486586195 255 255 255
-0.6972263055546155 0.3729178623104975 -1.34898433323985 255 255 255
-0.721881661369835 0.4444595547745159 -1.5345178813663494 255 255 255
-0.770479485103143 0.15517638897675312 -1.9086949196420298 255 255 255
-0.43590848499630797 -0.23136735490407542 1.3679076722053571 255 255 255
-0.7076988730301703 0.1449133542709801 -1.4318809123924086 255 255 255
-0.7540751373755007 0.16605994340964897 -1.7827945382626136 255 255 255
-0.7121138031901431 0.4225995862806676 -1.4606789201631396 255 255 255
-0.7699180686032125 0.11923905396543438 -1.9050677522254473 255 255 255
-0.4158845536550299 -0.37640430603093605 1.597914856944272 255 255 255
-0.47235065663257025 -0.1974116943401783 0.9305427605236659 255 255 255
-0.40606050368437396 -0.409537598658244 1.713496459393121 255 255 255
-0.45548785680672715 -0.20851991435763148 1.131323774860969 255 255 255
-0.41935414468973187 -0.37981848653626155 1.5571373715387546 255 255 255
-0.45264721231813043 -0.12846485311491282 1.1655117149470162 255 255 255
-0.45572908229299103 -0.20410940687928855 1.1251183669963216 255 255 255
-1.5309284308131204 -7.131337890532787 -32.87130434667392 255 255 255
-0.46596471727404104 0.2433416301539319 1.03309855676384 255 255 255
-0.3722628345853284 -0.07470909715552904 2.2878481386755283 255 255 255
-0.03574408442456022 0.7005688499171672 7.56328925479414 255 255 255
-0.4754387463021601 -0.26975561175398105 0.8870754937471503 255 255 255
-0.46248924503831207 0.021378317260971384 1.0600995991096922 255 255 255
-0.4527984913463665 -0.04203418586623597 1.1819893420050283 255 255 255
-0.45835475747932114 -0.2542845045497248 1.0959235704305181 255 255 255
0.0005464705685707478 0.6044783428502266 8.080432863491827 255 255 255
-0.4513608923969864 0.20623537145638804 1.2017678311256876 255 255 255
-0.7899249346275511 0.3200428410809941 -2.050677751061234 255 255 255
-0.46130628494419856 -0.03707962994645664 1.073252583765288 255 255 255
-0.3900498294887418 -0.6278354277453988 1.8989150518276159 255 255 255
-0.749282315283963 0.25725174102099824 -1.7472471567058834 255 255 255
-0.4656840621677995 0.05468547812948181 1.0236281966320242 255 255 255
-0.4711544804523146 0.0414403732688413 0.9608482189045666 255 255 255
-0.7779420095589917 0.1918917049987321 -1.9631648164986695 255 255 255
-0.4512582911183607 0.3402775532982391 1.255632950036013 255 255 255
-0.6274606354117103 -1.1547427345617172 -4.02641845231701 255 255 255
-0.4470589900765868 -0.09250717895126462 1.2385289139414788 255 255 255
-0.3914862984683436 -0.5972006109870914 1.882898652821133 255 255 255
-0.7114092211273638 0.21003786321596152 -1.4591336451619814 255 255 255
-0.773064272109619 -0.09238324606091117 -1.9308052984950645 255 255 255
-0.7053280012126297 0.00846814835248642 -1.412274308391238 255 255 255
-0.4115553744159316 -0.5522332853527222 1.6428474690402217 255 255 255
-0.6903374620260716 0.05234090082730973 -1.3024870599863907 255 255 255
-0.7967087032429621 0.7364273356250381 -2.094909458734868 255 255 255
-0.4698580230634788 -0.1676848125220771 0.9616371346685582 255 255 255
-0.4726217074891865 0.17276796911477144 0.9525766594379672 255 255 255
-0.9072680183341295 0.8370520416554477 -4.280641984642762 255 255 255
-0.45542611546848943 -0.3455477276066028 1.1295065871520211 255 255 255
-0.4262703641042059 -0.3101442640026786 1.4797732520507745 255 255 255
-0.056737058469237274 -0.016254260899351773 6.71084322244016 255 255 255
-0.8950825202661642 0.9015916904095554 -4.131684149942293 255 255 255
-0.475350094631643 -0.2634169210099879 0.8941238014110597 255 255 255
-0.7919611747948436 0.6239885526652648 -2.0606395391534225 255 255 255
-0.8893870849980883 1.0591060583633072 -4.060244193158572 255 255 255
-0.4543291894174983 -0.20670455159537846 1.1443331599665387 255 255 255
-0.45146460546487827 -0.028426682942941806 1.1940968045031757 255 255 255
-0.4119723633158445 -0.5146933560208701 1.6374860960504998 255 255 255
-0.7064205909186666 -0.13862174365937632 -1.4285077168896687 255 255 255
-0.44747882693906826 -0.15949003440301635 1.222513083552996 255 255 255
-0.8225917029378242 0.4063344744044812 -3.278566070451518 255 255 255
-0.4373813518913115 0.14148654913483588 1.3721183072750522 255 255 255
-0.45549434070008255 -0.05263686502104888 1.1429407330757 255 255 255
-0.4290086227557078 -0.40978449253838906 1.4411074155812806 255 255 255
-0.4754387463021601 -0.26975561175398105 0.8870754937471503 255 255 255
-0.7006467137988217 -0.01791084081031635 -1.3770798865946032 255 255 255
-0.47639121044891236 -0.2216833874341137 0.8804209697011992 255 255 255
-0.46175719357116374 -0.06270876458103802 1.064924246069558 255 255 255
-0.4585386971085856 -0.28955224502128046 1.0895091586508532 255 255 255
-0.8080064632755438 0.22262856625331365 -3.11781048826105 255 255 255
-0.36907759172498733 -0.6781158604348819 2.1396767490187663 255 255 255
-0.6943292312000793 0.3841915955352488 -1.3272741211889076 255 255 255
-0.4547739583844712 -0.2674335139070194 1.137459192147751 255 255 255
-0.6887177460209434 0.29882920932932516 -1.2853175612951324 255 255 255
-0.4651136263564521 -0.1546002937885828 1.0195695650423768 255 255 255
-0.4083983477973655 0.5847353389005403 2.2619505058268645 255 255 255
-0.35979935880957103 0.22031700854333153 2.8435983854920597 255 255 255
-0.6858359310800637 0.13444448340921117 -1.2699975934156227 255 255 255
-0.46211681802570465 -0.11533539512558066 1.0569442854468019 255 255 255
-0.3497150398666557 -0.19400163512030433 2.5692414301868367 255 255 255
-0.6428565123859521 -1.4258370092869552 -4.878700805515188 255 255 255
-0.7312320875234385 0.20661108688814744 -1.6082397186707522 255 255 255
-0.7144441468962458 0.48477498777571526 -1.4777466765962957 255 255 255
-0.7184578930208059 0.14538717798122025 -1.5131798439223314 255 255 255
-0.3030154698253895 -1.0024684753426012 3.3108482617459716 255 255 255
-0.7174200652344986 0.2505103052728541 -1.5037345071394337 255 255 255
-0.4585118081848936 0.017708356288141304 1.1092482691450103 255 255 255
-0.4459718098093697 -0.1429664614834838 1.250812832292005 255 255 255
-0.4694583448516273 -0.16884172120198515 0.966778662087849 255 255 255
0.25537921807609076 -0.8152513936308262 11.158185976762077 255 255 255
-0.7052518854531398 0.4335901384875141 -1.4089465043187486 255 255 255
-0.8261054300041748 0.5578441609656343 -3.3205168446337114 255 255 255
-0.4317139521651787 -0.2938008259448882 1.4132488002748698 255 255 255
-0.47382829846824825 -0.11369960363340799 0.9159038229748127 255 255 255
-0.8016897423500879 0.7483771921598872 -2.131591423349958 255 255 255
-0.4501925654736956 -0.2465187913305487 1.1952582523597142 255 255 255
-0.6976426109253806 0.19324307192800902 -1.354889926039438 255 255 255
-1.586102031686139 -7.890475239482389 -34.618040023875 255 255 255
-0.7200103247846177 0.14465001515445128 -1.5217736566461701 255 255 255
-0.7556223462347531 0.19742488178191486 -1.7939205828121338 255 255 255
-0.46214110768009503 -0.14422548959235246 1.053753852148438 255 255 255
-0.6881721634386687 0.05594997852949073 -1.2858436423106505 255 255 255
-0.6863163519709465 0.0507368696076989 -1.2724590864803011 255 255 255
-0.3148909904780611 0.2815246496225297 3.5123010462701965 255 255 255
-0.4525820060589085 -0.1454810085357079 1.17423135736767 255 255 255
-0.7034052954444594 0.2130011582312844 -1.3982555853653789 255 255 255
-0.7123647944064229 -0.044764330277735735 -1.4678056933336805 255 255 255
-0.8199857692158172 0.9939177633879224 -3.2203428000412 255 255 255
-0.7532534970885567 0.25234649469766185 -1.7749049747385397 255 255 255
-0.7917843540970919 -0.10941803205621614 -2.9596792742115987 255 255 255
-0.45208570439040063 -0.2096773400226915 1.170015018696283 255 255 255
-0.46438860521105174 0.017273000550895954 1.0378838162458814 255 255 255
-0.7498930120147408 0.16201422763635312 -1.751397283370904 255 255 255
-0.707512290968179 -0.14534039801555634 -1.439381989003436 255 255 255
-0.6993757808387442 -0.10287739075619963 -1.37354700983991 255 255 255
-0.4543689974587623 -0.21108807710270017 1.1465361414375514 255 255 255
-0.4654672178128859 0.1890940667607841 1.0370026175565796 255 255 255
0.10885924117664678 -1.7236730763703998 8.763805099338603 255 255 255
-1.1949362708292932 1.9485709978398138 -7.705997537662061 255 255 255
-0.4168976457753436 -0.5269138223970066 1.5812990392931696 255 255 255
-0.7065498214565962 0.3195544085435398 -1.416688378728721 255 255 255
-0.44376437932367274 0.12610040747077528 1.2921634988976403 255 255 255
-0.22701915804860243 0.5150805313785094 4.780640489543004 255 255 255
-0.4390249969062733 -0.2871805493903245 1.3236304523617919 255 255 255
-0.453466829326233 -0.26505069563485667 1.1545941037383458 255 255 255
-0.4751922557249677 0.21810412650560804 0.9221536338607926 255 255 255
-0.4553399675826762 -0.034927161203340544 1.1465503284293515 255 255 255
-0.4517903387107434 -0.30396881876744575 1.1658496372513114 255 255 255
-0.47504486560467685 0.021935807088554235 0.9083630422801092 255 255 255
-0.45607415208358015 -0.29975810365323513 1.116187308440723 255 255 255
-0.432345298648588 -0.2681945314880272 1.4068494555958555 255 255 255
-0.8017779764029298 0.7556261632588217 -2.1330420139038297 255 255 255
-0.41940341499161643 -0.2540617131486802 1.558896869110303 255 255 255
-0.4169755593133976 -0.49718273392686757 1.576021000239418 255 255 255
-0.7170748699794239 0.4037736333282551 -1.4977581228366945 255 255 255
-0.4714313636129043 -0.17455648814741304 0.9415665509459631 255 255 255
-0.8269826327414567 0.8286353860150691 -3.311499475796292 255 255 255
-0.7518567092380104 0.2579348823038258 -1.7648557485517629 255 255 255
-0.4545668600791052 -0.3205292894586099 1.1380710637548492 255 255 255
-0.7329847195000392 0.14722895974290723 -1.622278136890215 255 255 255
-1.1949362708292932 1.9485709978398138 -7.705997537662061 255 255 255
-0.8284799625922371 -0.12093261910975878 -3.400147792631585 255 255 255
-0.4684106520021704 0.06524074513619696 0.9981633130319937 255 255 255
-0.4536565582006159 -0.2713997544924016 1.1519927285697125 255 255 255
-0.7771591463389984 -0.0244296284020124 -2.7675653005501424 255 255 255
-0.4512582911183607 0.3402775532982391 1.255632950036013 255 255 255
-0.8225426596430647 0.24314529149021535 -3.2981739851110725 255 255 255
-0.6870694959767077 0.2891550486404304 -1.2738153964544565 255 255 255
-0.8389239797140883 0.8912611025915486 -3.467099658687397 255 255 255
-0.7971124698235799 0.005262823954264898 -3.0001482602915313 255 255 255
-0.4699644892822578 0.05754922009650937 0.9780225118116682 255 255 255
-0.4062859615996891 -0.2849027394084267 1.7246574199467255 255 255 255
-0.7512304909111068 0.14125307757382466 -1.762562470397479 255 255 255
-0.7970357519730269 0.6591443506096921 -2.0986218150360814 255 255 255
-0.4729381683824532 0.1275968358081765 0.9457242972361222 255 255 255
-0.869067331427819 0.5117887057489029 -3.8447042252682175 255 255 255
-0.7595518641420734 0.271619220236007 -1.822828682678309 255 255 255
-0.45662191192832347 0.19903367351468276 1.1427258917872225 255 255 255
-0.4373508533666212 0.14898702972597738 1.3722503244949125 255 255 255
-0.7764960836246099 0.33203824284769606 -1.949658586290103 255 255 255
-0.42061909817630805 -0.21554698922045945 1.5605303406586304 255 255 255
-0.45002930341430447 0.24245953664703093 1.2314741847767132 255 255 255
-0.4043997675757008 -0.5736056424143778 1.7246526867406826 255 255 255
-0.4748536403588525 0.044253957593953314 0.9130005267543361 255 255 255
-0.7565488091854325 0.26583000816596153 -1.798679393767331 255 255 255
-0.7731590197741228 0.11485491885505356 -1.9286298798074915 255 255 255
-0.46401312666315514 0.2427350987584252 1.0529934072084843 255 255 255
-1.3257149314106762 -0.19821685897581826 -9.91016215606873 255 255 255
-0.41905483613286765 -0.3750623910442638 1.5598621749360835 255 255 255
0.24757024684037615 -0.24159463491326078 11.253732693843263 255 255 255
-0.474959223613675 -0.22295894360602905 0.8970047561975009 255 255 255
-0.7045345797253378 -0.005534676892324477 -1.4068088139467032 255 255 255
-0.4410478600050674 0.3048183185302852 1.3366890325156033 255 255 255
-0.4635039527371425 -0.012777119880358645 1.0456647912169819 255 255 255
-1.3400830177646499 -0.09235378059956037 -10.083206918831836 255 255 255
-0.7999808751504641 0.30644635894069083 -3.0263589796845505 255 255 255
-0.7127780811940687 0.3761989947012874 -1.4601010407455588 255 255 255
-0.6885416519442956 0.20174586208983142 -1.2891029911781755 255 255 255
-0.45882735005314 -0.24951859362436044 1.0890555835697222 255 255 255
-0.4487889481055602 -0.3921216477474559 1.201031832534905 255 255 255
-0.43549741468805975 0.4888706840017352 1.8434393962909803 255 255 255
-0.4557094733896549 0.1536683818927021 1.152140414921762 255 255 255
-1.0111706795122988 1.4134142266031537 -5.518450132338063 255 255 255
-0.8038822498600832 0.7069983717369659 -3.0455518832037076 255 255 255
-0.4030452278806337 -0.4137298254773157 1.7466989715311863 255 255 255
-0.7500544853036668 -0.09410099724638289 -1.7567998847571347 255 255 255
-0.6979606226158943 0.0926113177624451 -1.3564490192935699 255 255 255
-0.47021415448598364 0.13741236495561793 0.9792869607969914 255 255 255
-0.7696418439866556 -0.058910019983603706 -1.9056328303155046 255 255 255
-0.46361916787983165 -0.07667343428869136 1.0387613556952942 255 255 255
-0.4571215224288529 -0.12006024587210276 1.1181757803781414 255 255 255
-0.46087361404431776 0.06012377304720522 1.0808861926764481 255 255 255
-0.7510991202457821 0.24627210644597672 -1.7591643671754809 255 255 255
-0.7735502790091233 0.1505063466092951 -1.9308635966676169 255 255 255
-0.4501925654736956 -0.2465187913305487 1.1952582523597142 255 255 255
-0.8928842233075924 0.9400794232047607 -4.109324353135887 255 255 255
-0.8796123380322777 1.3890384642601226 -3.9183416931972026 255 255 255
-0.4480423118097497 0.21171454785917912 1.2519583228292634 255 255 255
-0.4756290368405304 -0.26350386363370243 0.885564206492782 255 255 255
-0.7900418275255372 0.2082799194063805 -2.053738441026009 255 255 255
-0.9942030922482046 1.1010777689968998 -5.328010137751674 255 255 255
-0.429920433796782 -0.1771283368378652 1.440930231215057 255 255 255
-0.4663982553550143 -0.2728932889338132 0.9972859148806269 255 255 255
-0.45680425525051443 0.02189591316198046 1.1256536374613542 255 255 255
0.17849538269903095 -1.8518374669936164 9.686827018368428 255 255 255
-0.7031429063428607 0.1411748952676905 -1.3972713015539011 255 255 255
-0.42648250537815313 -0.24797308142296137 1.479447409987286 255 255 255
-0.4751922557249677 0.21810412650560804 0.9221536338607926 255 255 255
-0.7796539997821695 0.1631760517475548 -1.975455151429184 255 255 255
-0.36091584304540525 0.3231717090778267 2.8448716500177444 255 255 255
-0.41849674271235493 -0.4513238399826944 1.5628857381053871 255 255 255
-0.4101304886514284 -0.5206082034515166 1.6571235052630526 255 255 255
-0.3497150398666557 -0.19400163512030433 2.5692414301868367 255 255 255
-0.4483947654908446 -0.057779629933610556 1.2256531507408124 255 255 255
-0.8005223313761445 -0.2501394435452595 -3.5489977233405345 255 255 255
-0.8348909123400892 1.0580258913463336 -3.400377362972628 255 255 255
-0.4565855096107075 0.019920122700416213 1.1324211068459809 255 255 255
-1.290113028742316 0.3444757791265766 -9.41885843134785 255 255 255
-0.8244362286203387 0.927833619059646 -3.280261150679849 255 255 255
-0.7012911197802165 0.4125443893122538 -1.379308721699312 255 255 255
-0.3922235359038247 -0.5734626107634871 1.8733893832947472 255 255 255
-0.41490651673056816 -0.5316687202736178 1.601744591549087 255 255 255
-0.7122245897676593 0.3485390205322933 -1.4584272147733803 255 255 255
-0.8028367949003212 -0.10960140384261968 -3.090626900499725 255 255 255
-0.4543291894174983 -0.20670455159537846 1.1443331599665387 255 255 255
-0.6851695809026014 0.12782061273922046 -1.2654362329952518 255 255 255
-0.2098233406071869 -0.38966458418295086 4.560942608333805 255 255 255
-0.6870725208470283 0.3030832127078939 -1.2735903376884377 255 255 255
-0.7191715445387611 -0.07264972330702657 -1.524091933387653 255 255 255
-0.8008801383301698 0.648547997871684 -3.0114456130092457 255 255 255
-0.4697229793882707 0.10934378945132474 0.9801230974895271 255 255 255
-0.7180954439584456 0.23501223196014606 -1.5090441462365443 255 255 255
-0.7823817168833961 -0.10621935661433496 -2.0018293730717125 255 255 255
-0.19413426449096574 -1.3083077851748128 4.939839491006843 255 255 255
0.17849538269903095 -1.8518374669936164 9.686827018368428 255 255 255
-0.6815739190081831 0.3670386892788301 -1.231437791297573 255 255 255
-0.4459718098093697 -0.1429664614834838 1.250812832292005 255 255 255
-0.46214110768009503 -0.14422548959235246 1.053753852148438 255 255 255
-0.7052740985911019 0.077717720448105 -1.4108273132212459 255 255 255
3.0297982892843662 -5.033743698145358 47.83471842337492 255 255 255
-0.45500115472222485 -0.21646394589674248 1.1365178523712773 255 255 255
-0.39825772326187675 -0.600717555131757 1.7972648662593511 255 255 255
-0.8429195224721278 0.4574143999200674 -3.531942041727416 255 255 255
-0.7532907510490487 0.24341191745399876 -1.7763538391964278 255 255 255
-0.2801335707807356 -1.052960522266447 3.6013345985165963 255 255 255
-0.47195236861484063 -0.10532330653811811 0.9388405213494508 255 255 255
-0.7929435515328097 0.007760082530476896 -2.9567039740975165 255 255 255
-0.45680425525051443 0.02189591316198046 1.1256536374613542 255 255 255
-0.8472965699626422 -0.004290815207895168 -3.612698701929651 255 255 255
-0.4486128680112584 -0.2794966930985774 1.2079025278303286 255 255 255
-0.46529708764024535 0.10790789060920802 1.0353146188789915 255 255 255
-0.47053221656458927 0.26128245879367723 0.9810667131657492 255 255 255
-0.4683844521037222 0.07153750071571148 0.9978534588078244 255 255 255
-0.6800818125636429 0.39796648190147493 -1.2203922571764954 255 255 255
-0.46002184176465527 0.022105838520861176 1.0900837623152997 255 255 255
-0.4720581828859074 -0.10370748328162903 0.9366994601866325 255 255 255
-0.7543587754289098 0.23662279307093712 -1.7846722230667285 255 255 255
-0.718487304460727 0.5259599915829484 -1.507150474884445 255 255 255
-0.701607402679368 0.12533224609671648 -1.3858605393715262 255 255 255
-0.47615749299189747 -0.009372090625455335 0.8950089150300987 255 255 255
-0.6981148861328623 0.1273056991754514 -1.3596736449568738 255 255 255
-0.4699644892822578 0.05754922009650937 0.9780225118116682 255 255 255
-0.6998869783333989 0.39628605153773905 -1.3692091794167165 255 255 255
-0.4576608313424136 0.05965993864848366 1.1204741289484006 255 255 255
-0.7086019428943883 0.43298752641499655 -1.4343977982200615 255 255 255
-0.7814957912268318 0.6037234201410778 -1.9818182720930435 255 255 255
1.4907366782974003 -4.971961176042294 27.078200460542654 255 255 255
-0.3016921827693209 -0.9811894858612776 3.321929877441347 255 255 255
-0.4685800536785714 -0.27031590651256665 0.9724400089763101 255 255 255
-0.8703133930769188 0.7810720177475277 -3.845072120793334 255 255 255
-0.6994967752933393 0.07086566286435296 -1.3670397928545253 255 255 255
-0.8749027695714422 1.0084996675506246 -3.8910683737799046 255 255 255
-0.8892787954787085 1.005404145141264 -4.058877534862566 255 255 255
-0.47090910755675863 0.10889647905378824 0.968740629609698 255 255 255
-0.8472451540235204 1.0081158412116453 -3.558284231501727 255 255 255
-0.46076776322398805 0.11437840248063966 1.0890211258998996 255 255 255
-0.6910258401867974 0.07141789190108272 -1.306865510779335 255 255 255
-0.47253881598349623 0.228104294844864 0.9519847395202319 255 255 255
-0.4270313204564154 0.08527059692799935 1.7441678535341487 255 255 255
-0.40482973898852825 -0.405385455128438 1.733045231836531 255 255 255
-0.46684526040589175 -0.02017444020498581 1.0043828377153408 255 255 255
-0.9704727944109521 0.7092846726774484 -5.059442546554047 255 255 255
-0.2398619881557326 0.4650107910598274 4.597562835049334 255 255 255
-0.8755615736778355 0.9593082520842687 -3.901604787276168 255 255 255
-0.433484265742486 -0.35357179695733476 1.3878610821411055 255 255 255
-0.41714553666474974 -0.4813809432987301 1.5797048909242342 255 255 255
-0.6857206126921517 0.32465753341862913 -1.2626064243376454 255 255 255
-0.4765311609702911 -0.002756797145086818 0.8921052071510831 255 255 255
-0.4495364359314953 0.0932374303449803 1.226518286068519 255 255 255
-0.6913639237006544 0.010465756443169764 -1.3103307071317973 255 255 255
-0.7945918304294896 -0.037186236471577594 -2.978087046161926 255 255 255
-0.4225282707938853 -0.23202166300257654 1.5283475781296632 255 255 255
0.583279439749535 -2.6817457685892543 15.040689730914956 255 255 255
-0.46214555933858775 -0.06640064725425078 1.0600800424172567 255 255 255
-0.7170112608373291 0.4959903298165916 -1.4975784636451241 255 255 255
-0.6967161271027981 -0.10804620033990465 -1.3554935337730891 255 255 255
0.024842851597782045 -0.6218541052418158 7.739660295802918 255 255 255
-0.7917366746078381 0.2121300939073897 -2.0670007667346604 255 255 255
-0.7030734767470673 0.42185590510195925 -1.3926309763314775 255 255 255
-0.449459667743472 -0.07569055258617473 1.2128291881511972 255 255 255
0.12740967364444114 0.24510285249385863 9.209937636280252 255 255 255
0.9831777532843617 -3.264386430541808 20.370646319123917 255 255 255
-0.6987165994117794 0.3608351390733868 -1.3590754776945135 255 255 255
-0.7022701118251397 0.41328357992395626 -1.3869794143851666 255 255 255
-0.4544679396561105 -0.25320026923431843 1.1398158547425623 255 255 255
-0.4477130492895952 -0.06308750581691283 1.2248014445257793 255 255 255
-0.4280631328157723 -0.47404526359151145 1.4442027530910733 255 255 255
-0.41805731952281444 -0.45897828310961486 1.5697497960190752 255 255 255
0.4675256819488835 -2.4712696895901964 13.521564918290522 255 255 255
-0.40082840313174906 0.1395482236686707 2.1410180290872014 255 255 255
-0.7152213390590465 0.33947290530961827 -1.4839289498778052 255 255 255
-0.46425905505499276 -0.14148522210150377 1.0265295339589509 255 255 255
-0.42128274242027075 -0.25236904748854994 1.5436556752368118 255 255 255
-0.4282309868162538 -0.18322240160240033 1.465556867162835 255 255 255
-0.45715777036760535 -0.23300595667526602 1.1122984702707162 255 255 255
-0.7147967332127827 0.2756764762348625 -1.4810979629460665 255 255 255
-0.461971965947991 0.06173290012032598 1.0663833473641828 255 255 255
-0.9704727944109521 0.7092846726774484 -5.059442546554047 255 255 255
-0.44909317098571505 0.2002073123582628 1.235483247909805 255 255 255
-0.9290405823248009 0.9159833266426411 -4.546901587885391 255 255 255
-0.7794597736107753 -0.10770267753522712 -1.9793896645835747 255 255 255
-0.46609200176759646 0.23715640910961855 1.0305501665387782 255 255 255
-0.8371020609768313 0.6451284541993246 -3.4494501633994323 255 255 255
-0.7099705786155801 0.4283960826266795 -1.4448088828089005 255 255 255
-0.8623170374319912 1.0622194437111703 -3.7236631644510387 255 255 255
-0.7098229600688085 -0.042245855565807754 -1.446751667814391 255 255 255
-0.7823817168833961 -0.10621935661433496 -2.0018293730717125 255 255 255
-0.45628729069581514 0.0190256701810037 1.1349586823942939 255 255 255
-0.46099940718634513 -0.30223614095199514 1.059878012528394 255 255 255
-0.705924058041974 0.349931931254108 -1.4111778349115143 255 255 255
-0.8485137016600626 0.009750087043236813 -3.621701931055663 255 255 255
-0.4564837998310713 0.0230898670567626 1.134687380569307 255 255 255
-0.8755615736778355 0.9593082520842687 -3.901604787276168 255 255 255
-0.46796446386069424 -0.13483331555325676 0.9849965994559685 255 255 255
-0.7059006377586651 0.1461401494216696 -1.4189265912320397 255 255 255
-0.6843376065499257 0.1244816540309455 -1.2603155163982893 255 255 255
-0.7668021181292873 0.1217800391321909 -1.8797006915787673 255 255 255
-0.7070068657305193 0.44330074602947794 -1.4214865765097189 255 255 255
-0.6841116102737963 0.3779251799138799 -1.2500039744309595 255 255 255
-0.7992135626475404 1.0447305285077413 -2.9675155220557916 255 255 255
-0.3907962599319684 -0.5884476118917216 1.892343066612749 255 255 255
-0.694288688787185 0.4481125647013694 -1.325908982963711 255 255 255
-0.44698823374119506 -0.10466078666097749 1.2403116378291195 255 255 255
-0.23317217147630437 -0.4968225048029094 4.26544840331818 255 255 255
-0.478757671521092 0.24574680548100938 0.8828594760381304 255 255 255
-0.7668021181292873 0.1217800391321909 -1.8797006915787673 255 255 255
-0.4760349084262094 -0.2767343992908079 0.8805097067421686 255 255 255
-0.4510568734649166 0.06836572905764955 1.2032078251212743 255 255 255
-0.7049978365853826 0.03880954834710031 -1.4088694029403788 255 255 255
-0.7011473230862205 0.037977901059587635 -1.3801340395395478 255 255 255
-0.4299681506062275 -0.3020285545444231 1.4326761039832843 255 255 255
-0.6982505873651962 0.38456974975318126 -1.3573166296944754 255 255 255
-0.7137110639563674 0.3448631820091524 -1.4724816198028472 255 255 255
-0.8480714233670006 0.9226558830412646 -3.5721434279818105 255 255 255
-0.7030854587534947 0.0009751627655294439 -1.3952059157023489 255 255 255
-0.45520337358617113 -0.23520646884605992 1.1313588761246782 255 255 255
-0.46988053865880264 -0.12284280587936007 0.960164253983864 255 255 255
-0.8547956478375645 1.0462851164401927 -3.6361260928721197 255 255 255
-0.437977411463706 -0.43198459887901447 1.327900439582881 255 255 255
-0.4688061683710436 0.32531363932635393 1.0464563807293477 255 255 255
-0.4436452087478423 -0.2799891978301907 1.2688269260067169 255 255 255
-0.46148975715517876 -0.08024829674915912 1.067762982034686 255 255 255
-0.7063758967319895 0.13248262328000818 -1.4219559449646466 255 255 255
-1.7843782205949221 -2.1817000623736296 -18.555105089563842 255 255 255
-0.4588319366175341 -0.08246985333478761 1.0966658426729883 255 255 255
-0.8300623701660416 1.036653909485446 -3.33898347935502 255 255 255
-0.42017208930095307 -0.2574094126491269 1.5570321650999226 255 255 255
-0.4702927954590785 -0.1699662304197801 0.956036059363794 255 255 255
-0.7074335259254899 0.3775084081738168 -1.4233838116962243 255 255 255
-0.7287206097797552 0.22121011603469376 -1.5866599765469023 255 255 255
-0.4368726072537756 -0.44387812957853595 1.341404933815345 255 255 255
-0.4602515865988252 -0.19357476349311462 1.0771876871500203 255 255 255
-0.4362163156205605 -0.02563070485463186 1.3758017649626613 255 255 255
-0.431154649755536 -0.1643803721106144 1.4266944714830627 255 255 255
-1.4240780192736737 0.6766068695019825 -11.126675128664134 255 255 255
-0.44223509000350497 0.1779494907044611 1.315579571084374 255 255 255
-0.4559410465416124 -0.3015523136336236 1.1182523212267697 255 255 255
-0.7111261884285224 0.4582185817376738 -1.453227662175756 255 255 255
-0.46591710379398693 -0.15873400749092265 1.0115302079264232 255 255 255
-0.4335266958411754 -0.3909139352218985 1.3863313370152692 255 255 255
-0.70684709535175 0.14326882019523796 -1.4258366062636754 255 255 255
-0.45503177948717816 0.14996282066196936 1.1601037603580233 255 255 255
-0.6949158998107767 0.375556650804155 -1.3320241975740827 255 255 255
-0.47468712615768427 0.05032160424837041 0.9139350750457512 255 255 255
-0.4102663804173422 0.2431879292330355 2.125243839684052 255 255 255
-0.462078898006484 0.15047323702066917 1.07471873841606 255 255 255
-0.46796446386069424 -0.13483331555325676 0.9849965994559685 255 255 255
-0.6414901833897764 -0.9509478294861796 -3.818796751115554 255 255 255
-0.4277286468104777 -0.19091979282353985 1.46929753907039 255 255 255
-0.7089490822510018 0.23921675004393525 -1.4360334967290513 255 255 255
-0.6898618273645903 -0.08698515586457875 -1.3024202913119085 255 255 255
-0.3295316006306925 -0.43888457127315605 2.818918930801921 255 255 255
-0.4527984913463665 -0.04203418586623597 1.1819893420050283 255 255 255
-0.7043638220605369 0.11366769971425252 -1.4058079218844193 255 255 255
-0.7166904937203288 0.4364033258649517 -1.4953367376138742 255 255 255
-0.2893544870732167 -1.0005689301414524 3.4712424682904737 255 255 255
-0.8714245389123458 0.8002983532283761 -3.8607795017451587 255 255 255
-0.7045883201898052 0.41974269779210277 -1.4040833219288489 255 255 255
-0.7022865104239718 0.23349898049764198 -1.3852282679674544 255 255 255
-0.4732884838224847 0.08500843497255303 0.9392257710553388 255 255 255
-0.4102606622691097 0.18172178414408216 2.122508174438287 255 255 255
-0.4694583448516273 -0.16884172120198515 0.966778662087849 255 255 255
-0.4762085706202562 -0.28183245732833295 0.8771481047623501 255 255 255
-0.7063200743323683 0.27940951015838084 -1.4146699464908825 255 255 255
0.40900223665635954 -0.43461531190587815 13.604899432914673 255 255 255
-0.4626740247025184 -0.015708837007471995 1.0563021840746052 255 255 255
-0.4460078791240398 -0.34828366814509465 1.2402824909478938 255 255 255
-0.7151531853854378 0.3231571857591626 -1.48331611812831 255 255 255
-0.8001640159792937 0.6865454921220709 -2.1206510153175544 255 255 255
-0.4281023897582846 -0.17598838597184305 1.465687753612977 255 255 255
-0.7062319374682543 0.23995583870936507 -1.4154277494341971 255 255 255
-0.7520375433300558 0.16953787530843265 -1.7677902870797735 255 255 255
-0.46991045720294145 0.27914987828530935 1.0088856743152002 255 255 255
-0.6921389321100246 -0.05490734966305985 -1.3178486691903608 255 255 255
-0.45456325465430936 0.20403347108913605 1.1635296277540255 255 255 255
-6.129492697379276 -0.08594797501327694 -74.64449929314219 255 255 255
0.711618972885054 -3.3701145001034365 16.681385513090564 255 255 255
-0.6811332205692912 0.3843193573111397 -1.2287154595123893 255 255 255
-0.30368795235051843 -1.0329775637722993 3.3148529903567527 255 255 255
-0.8244362286203387 0.927833619059646 -3.280261150679849 255 255 255
-0.6071634759326728 -0.5388372333057301 -2.1152403138122855 255 255 255
-0.9283046804767445 -0.050289109155832415 -5.012929483293813 255 255 255
-0.7037971451726541 0.3915020507334546 -1.3984380538440895 255 255 255
-0.7281308096194645 0.2156804442798645 -1.5837063277508605 255 255 255
-0.41359107821249386 -0.3915196909473942 1.6216964082055707 255 255 255
-0.7028086205815708 0.3965607616257352 -1.3908059054485118 255 255 255
-0.7100607158001748 0.2080549203761641 -1.4488265554773638 255 255 255
-0.6921389321100246 -0.05490734966305985 -1.3178486691903608 255 255 255
-17.97233608439007 -30.322834120215827 -262.5772852662293 255 255 255
-0.4601583745999438 0.2022019438455865 1.0985467303268532 255 255 255
-0.8177562685619305 0.4077526917318811 -3.22963273607996 255 255 255
-0.700181322601664 0.04613250591831614 -1.3711451968060724 255 255 255
-0.4290086227557078 -0.40978449253838906 1.4411074155812806 255 255 255
-0.7063200743323683 0.27940951015838084 -1.4146699464908825 255 255 255
-0.8382795868953407 0.04988623955782865 -3.499854828959404 255 255 255
-0.9991588607513764 1.4525763776702605 -5.359235588621075 255 255 255
-0.6856685042019869 -0.036221106477594085 -1.2694249096142356 255 255 255
-0.7105302811666889 0.08028653849126409 -1.4496744097329017 255 255 255
0.006398871288734232 -0.8785271459640497 7.394125098861684 255 255 255
-0.8202048830934481 0.8138854810129078 -3.236306676198834 255 255 255
0.9831777532843617 -3.264386430541808 20.370646319123917 255 255 255
-0.38372642262791873 -0.5943871297448632 1.9772005288139858 255 255 255
0.17849538269903095 -1.8518374669936164 9.686827018368428 255 255 255
-0.7107934949504897 0.488581597384746 -1.4500713128616214 255 255 255
-0.8012611257031185 0.5623643568516964 -3.024591464486615 255 255 255
-0.7084006946748558 0.3346197016074048 -1.4309337314838904 255 255 255
-0.7187127927349298 0.15724087471444448 -1.5149951031684408 255 255 255
-0.8811570263661664 0.7860617465594092 -3.9672391688933786 255 255 255
-0.9375737579241293 -0.14190279327273247 -5.133531436111396 255 255 255
-0.8011790377675662 -0.12238273108413433 -3.0608619869868083 255 255 255
-0.3722628345853284 -0.07470909715552904 2.2878481386755283 255 255 255
-1.208087048786272 2.188157282963982 -7.8588241249960795 255 255 255
-0.46950452838033346 0.027879100926118863 0.97792444256635 255 255 255
-1.0100676415436318 1.1122418869835364 -5.506800451344463 255 255 255
-0.14892410312199547 0.0007477569381067248 5.412914584097878 255 255 255
-0.8114395194415698 0.21915755044339008 -3.1591331158380798 255 255 255
-0.33875911862262903 -0.08791163602408654 2.7940173503143124 255 255 255
-0.4460509059173074 0.17090538435754404 1.2672843965297025 255 255 255
-0.7044262138290106 -0.017771363995603345 -1.4063032693537836 255 255 255
-1.0160675576141551 0.9533446014630457 -5.6011712835985685 255 255 255
-0.8429336298953435 0.016602107337896153 -3.5634784770877928 255 255 255
-0.7134987270106528 0.2446387938090787 -1.47123004259059 255 255 255
-0.46170924817657627 -0.031124278071256103 1.065693672923765 255 255 255
-0.4510793429850327 0.3149383392270637 1.2276565113724396 255 255 255
-0.4396496509223101 -0.22531117533424025 1.320142010214656 255 255 255
-0.7099841883537478 0.47300767446394737 -1.444213164289942 255 255 255
-0.719606158469346 0.1537579896501661 -1.521403566136406 255 255 255
-0.714452885979993 0.11599997433770073 -1.484603575864456 255 255 255
-0.4487889481055602 -0.3921216477474559 1.201031832534905 255 255 255
-0.7557757644228371 0.2503110101002533 -1.7931437620753534 255 255 255
-1.0740542305276226 1.7133784561297618 -6.2557500801750665 255 255 255
-0.4657580195375086 0.05651829188979454 1.0212543655477417 255 255 255
-0.46078001601412544 -0.2831991190711429 1.061973301868974 255 255 255
-0.7863401772848804 0.6252947404430108 -2.0182019467255987 255 255 255
-0.4454499795419197 0.3610746279219943 1.3344905893152446 255 255 255
-0.4509749414959827 -0.15100293635829015 1.1893168933121017 255 255 255
-0.4541025856236683 0.1201312779546404 1.1714450554600633 255 255 255
-0.4463809421445856 -0.19035668383985457 1.239867995903451 255 255 255
-0.7148277541750365 0.1407664131409028 -1.4865328693899145 255 255 255
-0.6832797052430335 0.30681313778663977 -1.244799048817318 255 255 255
-0.4449491289268213 -0.13253051078325495 1.2631624919357374 255 255 255
-0.4711544804523146 0.0414403732688413 0.9608482189045666 255 255 255
-0.70231321434526 -0.124893211806697 -1.3966619698254406 255 255 255
-0.7632483900547261 0.24417489452085459 -1.8516436121328645 255 255 255
0.5328699103411251 -2.694968381278477 14.420883630418652 255 255 255
-0.14892410312199547 0.0007477569381067248 5.412914584097878 255 255 255
-0.43633027077285996 -0.2917695858900506 1.3580323073980414 255 255 255
-0.4567299411159394 -0.04319861108171983 1.1304032984907566 255 255 255
-0.7100607158001748 0.2080549203761641 -1.4488265554773638 255 255 255
-0.4462150082359102 0.05580533455013763 1.2632626451827973 255 255 255
-0.7024598374386903 0.31086132712220504 -1.385701293066369 255 255 255
-0.8342261111836831 0.864787330875814 -3.403987028010451 255 255 255
-0.7042872327076278 0.013579083421116014 -1.404639602749191 255 255 255
-0.4483365188700439 0.12816491501347446 1.2354695247928478 255 255 255
-0.7171476685619463 0.13957293277577984 -1.5028380051108041 255 255 255
-0.4554894302367107 -0.0570356754286768 1.1436658734195873 255 255 255
-0.8491123418462679 0.6777747252777534 -3.599662331631989 255 255 255
-0.4066194838903762 -0.5407145177696028 1.7065111718516253 255 255 255
-0.45570912938305325 -0.14956487600380783 1.1290433384743008 255 255 255
-0.7119757432131649 0.331322082481858 -1.4572902181525338 255 255 255
-0.7509181556853525 0.2616376839701952 -1.7570025580435953 255 255 255
-0.7056038385044588 0.0008180125093420148 -1.4142924241513357 255 255 255
-0.7150793683066519 0.4207430242685636 -1.4832336062351936 255 255 255
-0.8521300328344998 1.0483574866565624 -3.6088246393628722 255 255 255
-0.7556223462347531 0.19742488178191486 -1.7939205828121338 255 255 255
-0.4661745798801546 0.1451176186206019 1.0267927478350898 255 255 255
-0.6836401731699346 0.379451965081353 -1.2467598184948372 255 255 255
-1.0999217873663576 1.1178797023717377 -6.595167541147826 255 255 255
-0.4760880416896115 -0.1592057266523215 0.8861989825121259 255 255 255
-0.7000967896553587 0.4427669018672961 -1.3699794758841934 255 255 255
-0.7100588480782359 0.003972662195611667 -1.4478579141395622 255 255 255
-0.8535898740350479 1.2214381580225568 -3.6192678712019233 255 255 255
-0.4484709343344961 -0.1545897247815035 1.2199232819888064 255 255 255
-0.7001653098645918 0.19666618969805874 -1.374375115465766 255 255 255
-0.780956034680066 -0.24344250179114046 -2.8198513042460935 255 255 255
-0.43401239124911106 -0.40365295976612986 1.3731975193305008 255 255 255
-0.4270436202734142 -0.3675807838634301 1.4632880067826408 255 255 255
-0.09028264132231727 0.34815946511200674 6.5377782173692776 255 255 255
-0.46078198366983414 -0.3454853069811145 1.058204574664048 255 255 255
-0.3347497981821649 0.26515137154782337 3.223388959764361 255 255 255
-0.9451528654954273 0.6512635390442595 -4.749138127340634 255 255 255
-0.7856152538120286 0.6084507344206792 -2.0130395423777014 255 255 255
-0.7197162698573134 0.09046597833157749 -1.522026012149995 255 255 255
-0.46579329234253886 0.016317312031513674 1.0266553303110115 255 255 255
-0.8011866934900048 0.9950381623870703 -2.993056102732933 255 255 255
-0.23736820724669494 -0.1502963152382374 4.218954486985518 255 255 255
-0.8192121327368305 0.05172182021911459 -3.279223940016239 255 255 255
-0.7044961080743597 0.143319709907971 -1.4074812061677455 255 255 255
-0.30028455498756995 0.02882470763347561 3.222126578334973 255 255 255
-0.43495407029170574 0.2504097681846213 1.8216217381835755 255 255 255
-0.42314573728689864 -0.5104841512375136 1.5014423202139093 255 255 255
-0.7081465324341922 0.40800310564411896 -1.4307178116455046 255 255 255
-0.4598959331291795 -0.2673569862706911 1.0741196079864839 255 255 255
-0.4594267743561404 -0.2576210169021779 1.0814305303191496 255 255 255
-0.7049501685311724 0.3999291606074974 -1.4073411607574942 255 255 255
-0.4413175009187752 -0.3961076260496715 1.2887143864952566 255 255 255
-0.7881878355842912 0.15270171482948858 -2.037856116903677 255 255 255
-0.4757059172251051 -0.00023648759802893444 0.90105539471241 255 255 255
-0.35699088982062066 0.30584839898472166 2.8975778222034076 255 255 255
-0.4645337542527919 -0.1683725041508133 1.0244234096101554 255 255 255
-1.7155691120957426 -1.5676980658279474 -16.83422901006606 255 255 255
-0.791783254053683 0.7154041871580399 -2.9018591214989415 255 255 255
-0.6981916096832129 0.3978233170206777 -1.3569809406998015 255 255 255
-0.7117830507551697 0.42681160538855706 -1.4584565304877912 255 255 255
-0.45962904506219 -0.3494290729780829 1.0711579694858293 255 255 255
-0.4720581828859074 -0.10370748328162903 0.9366994601866325 255 255 255
-0.45015038769414034 0.31866818724642615 1.2430220006546966 255 255 255
-0.4342581463377458 -0.23699956463238206 1.3857287443342567 255 255 255
-0.7100469136229537 0.017116414333198375 -1.4475244359888244 255 255 255
-0.7070383037348358 -0.02267521236704408 -1.4257199746827949 255 255 255
