ply
format ascii 1.0
element vertex 694
property float x
property float y
property float z
property uchar red
property uchar green
property uchar blue
end_header
-1.708832645416763 0.7934906008805087 3.4160881474888414 255 255 255
-1.494644992375485 -1.2174534345487316 3.9500462194237875 255 255 255
14.238457907919017 -9.878478922147082 43.784983975013446 255 255 255
24.108168549159867 -5.3188362430524245 49.07959360674775 255 255 255
0.2787398806995603 -0.03559136739190281 5.461970531326936 255 255 255
13.815201414789493 0.3585655838257819 41.20866376789038 255 255 255
71.58322611092223 -6.962406210759263 130.6356594877626 255 255 255
29.118086698407026 -3.1077827908276494 57.64076535079477 255 255 255
25.73369065194533 -10.409035443888625 61.07742834851889 255 255 255
13.862698855091448 -2.9192112709269153 41.35433690143068 255 255 255
23.739106026808926 -10.104264253818187 58.00046773803236 255 255 255
-1.7936458010941505 0.6218631218413616 3.3246751886086336 255 255 255
27.129152036293632 -13.432504635079685 62.34708939185624 255 255 255
20.90823718955027 -13.410533229303491 53.703745796946045 255 255 255
38.91269387116534 -12.301073075019431 81.81125832768639 255 255 255
-1.8031870562156584 0.28928031162367734 3.3422938648083718 255 255 255
-1.3536147957017948 -0.3794337687928732 4.073006177571828 255 255 255
26.64931253653562 -16.113958253216413 62.40622684139673 255 255 255
1.7923742613397393 -2.0291599488164076 8.940415671641269 255 255 255
31.038897492458336 -13.021828412583591 69.10501516826831 255 255 255
14.172028383382523 1.777627312703263 41.46620444131447 255 255 255
-1.0551665132067207 -1.5748636729081915 4.659642477105476 255 255 255
-1.7341675572678366 -0.7919342793133024 3.5395095778969834 255 255 255
-1.759654284585206 -1.0537285493026916 3.534405840569761 255 255 255
38.85447955356737 -14.589115687818959 82.35132510866605 255 255 255
-1.6644988760914523 -0.948139460881462 3.6688511257299647 255 255 255
24.649354912956735 -13.572145388308538 59.3403327349096 255 255 255
14.932279273044463 -11.658927417240328 44.33311934745429 255 255 255
65.7644285357577 -38.15112738525687 127.25353660482996 255 255 255
59.96115298478518 -37.82199910675385 118.26939060330955 255 255 255
-1.6416080134971145 -0.01470534122405322 3.612885194247695 255 255 255
1.4892700979611415 -1.8817534109355925 8.496860754551419 255 255 255
19.932145064637595 -3.2747494974719786 43.6824349731882 255 255 255
-1.4048335102688942 0.6157655328867121 3.9004872087316973 255 255 255
-1.6843824947946784 0.195943279942651 3.52011873819158 255 255 255
-1.0874581264402199 -0.5828900426279996 4.479096323807509 255 255 255
64.97683638002019 -37.00435491055867 125.87668119306724 255 255 255
68.39808570687529 3.3998442706200374 125.101855868253 255 255 255
-1.6391738856683598 0.2314048530198107 3.5768383355513484 255 255 255
-1.6309827548382947 -0.4962111018443704 3.6786258191146057 255 255 255
13.988282114153968 -11.0635339899793 42.912476300290095 255 255 255
13.68635418296523 2.458858688233 39.96461891694211 255 255 255
-1.5042299185434005 -1.2109507132859711 3.9417862913847492 255 255 255
-1.5176947716958145 0.65660366033706 3.719263801549338 255 255 255
23.696121896573526 -14.138845309250112 57.8954423334154 255 255 255
0.22573589977639583 0.031172049058958897 5.4371016951948725 255 255 255
22.615608888271225 -9.934398053171977 56.376073906877025 255 255 255
1.8983730523890467 -0.193097041408373 8.917694572192987 255 255 255
-1.6535310118272422 -0.4188086347710812 3.6385752186753875 255 255 255
32.54218752807478 -7.396569750903494 67.98979975996934 255 255 255
-1.406647455742749 -0.4347292563026006 3.9862337396675995 255 255 255
60.75790066828607 -38.79323221232329 119.79379768285254 255 255 255
19.11967606096617 -11.020778478998139 50.3799017633336 255 255 255
-0.9262039376361884 -0.710829014814231 4.758769371780713 255 255 255
-1.5254335074558554 -0.8919302668677787 3.875709915387642 255 255 255
-1.780703865080652 -0.9256353026664853 3.48843332889987 255 255 255
42.26729897629719 -28.202487445082095 90.18545223686138 255 255 255
21.149347268983234 -13.111673666405617 53.94537497724306 255 255 255
-1.4126439785848217 -0.4721876503982582 3.99498233971357 255 255 255
34.499266802893366 -27.024416788193633 77.17177530399108 255 255 255
24.08425593683949 -12.115887139216204 58.27766388044797 255 255 255
1.121587925630564 0.3662004807200171 6.987176580789404 255 255 255
23.97335190143174 -15.790445820334451 58.1524125849719 255 255 255
17.654390813864506 -4.885828840772303 44.2060488542903 255 255 255
-1.5493356162332106 0.6366178167976686 3.6765973126505935 255 255 255
18.44562480128651 -10.015898693355517 49.43781813030159 255 255 255
19.984318114821168 -14.244302596874869 52.08550263182735 255 255 255
19.006437669437837 -13.55696244798927 50.747632326888585 255 255 255
24.615416854193317 -12.351178411962875 59.134571303315575 255 255 255
21.91267227467732 -5.151037349141689 47.59717737605337 255 255 255
25.46866574465265 -11.105331212582994 61.03661590596416 255 255 255
22.691128228656726 -6.168125815833726 47.43915288573196 255 255 255
74.94994967393683 -26.044555116909475 139.14008834019194 255 255 255
-1.5846720396035987 -0.5387308111978558 3.7435561864216824 255 255 255
16.151575981022404 -3.7545579307169383 34.59854432521691 255 255 255
1.8488011248428884 -2.02903664777551 9.016268243065575 255 255 255
0.07801671093549375 -0.36083733898090975 5.5441567343575064 255 255 255
-1.5388028560477962 0.9954940963035784 3.663992546715806 255 255 255
-1.4639679754658745 0.16248486865286468 3.863817238555204 255 255 255
14.12667285612304 0.07858841462974783 41.789093202745285 255 255 255
1.641082204934959 -2.940318038216033 8.833776985235717 255 255 255
24.56767772995029 -8.719682793718006 59.282327967843074 255 255 255
15.277411239453235 -10.877993712946552 44.77553601794901 255 255 255
-1.3634637636152185 -0.9259302889911258 4.138666842122801 255 255 255
54.406738213694204 -32.815870418493326 108.87989829608468 255 255 255
-1.3795941196764898 -0.5114593544807756 4.100311315907616 255 255 255
-1.3238420930262218 -0.716398734646673 4.167624254814097 255 255 255
25.658921993704233 -6.642996852429386 51.39115641537231 255 255 255
-1.517948449546799 -0.020534041308115984 3.7932756923777413 255 255 255
80.41141353808923 -23.29890044005069 148.97306721773197 255 255 255
0.8127668328667571 -0.4205948760924604 6.89027648830574 255 255 255
1.5290019355014377 -1.4661265367381526 8.475110352998849 255 255 255
20.616796832321995 -4.923237552975795 44.79730834337761 255 255 255
-1.4956171066231043 -0.2544637608569025 3.8664442558987355 255 255 255
32.026277492904455 -15.248011169839701 70.47817450738515 255 255 255
13.850266288807873 -11.0694378353226 42.77056859999762 255 255 255
-1.5356964922672056 1.0188939412967322 3.66850884014398 255 255 255
76.12185399319272 -28.955903924019342 141.77040154314912 255 255 255
-1.8035445821195881 -0.6647356456821168 3.431151271872142 255 255 255
-1.554234749610353 -0.29133588450781145 3.764009205027 255 255 255
19.128047185961154 -12.428577308699026 50.80139946609735 255 255 255
27.33492099295407 -16.41355153639291 63.46681896394325 255 255 255
-1.6579340051592246 -1.0725901028874794 3.687719979460146 255 255 255
15.472405378163012 3.0751997378152627 42.39074121661477 255 255 255
80.82488332472958 -28.709779307539353 148.80864096101803 255 255 255
13.25072055446663 -9.654990581558632 41.65576687123508 255 255 255
-1.435892478662944 0.2949835670146705 3.902634714890773 255 255 255
19.745030421092654 -12.652675649965735 51.81764606413391 255 255 255
35.775207473859446 -15.876935289040691 76.9229691672862 255 255 255
-1.2797883056128074 -0.40144687925326045 4.193818364008622 255 255 255
-1.7000719733906429 -0.5478621227520897 3.5693015570936395 255 255 255
-1.3998965891752526 -0.8391631303522898 4.05296678952073 255 255 255
23.66772046061956 -12.398154441379006 57.3511990381183 255 255 255
27.34142699602131 -8.707522915984569 62.36978275990622 255 255 255
-1.7678579368299254 -0.6434693918849834 3.487551273205317 255 255 255
81.44261914551241 -24.914798056841768 150.51380360321645 255 255 255
39.347629747213944 -13.95063434839501 83.66792590341072 255 255 255
19.909056548913842 -10.790053775667449 51.081090471137 255 255 255
15.402889578351266 -11.271796568141202 45.02999944293805 255 255 255
-1.4478313405935723 -0.7295873671376016 3.9711707630465733 255 255 255
70.55777633459118 -1.3172782818509619 129.34831724321583 255 255 255
26.86770336771247 -6.6656323955502 53.23782996383146 255 255 255
21.72152287551278 -13.32219529192411 54.734367302841854 255 255 255
29.62461209992493 -13.826729307302976 67.22478674312036 255 255 255
16.19674895512174 -10.823877936970074 46.2441010505662 255 255 255
24.423061656739684 -15.181245442798813 59.22843398768054 255 255 255
-1.7466463651719524 0.5060132210015393 3.4021810053036425 255 255 255
-1.6490343278125112 -0.9037308419571711 3.695117163551833 255 255 255
-1.7253946872530932 -0.6320347194264055 3.546008152886402 255 255 255
28.163818143557013 -16.463747220446812 64.80251304148597 255 255 255
-1.7569812081432234 0.2912724271765342 3.4054574643389404 255 255 255
13.272926928230428 -8.170288928731605 41.68144527513316 255 255 255
25.74504255724767 -14.523625143285258 61.10554966227483 255 255 255
23.64129201218298 -13.639476806915644 57.750624847014485 255 255 255
-1.7072378581389 0.2475334745029732 3.487800513872135 255 255 255
17.94561621553509 -10.206782816823685 48.80438234928193 255 255 255
-1.7432988712532855 -0.25292806832086256 3.4792369326294907 255 255 255
-1.4730866618217244 -1.2561135429173083 3.9721129239964523 255 255 255
-1.5158097421288148 -0.9413451963592468 3.8843537945238844 255 255 255
16.991276374131203 -9.258024021317482 46.9217396795378 255 255 255
-1.4511864940861676 0.13095267702367938 3.8820417597476347 255 255 255
-0.4958764647164368 -0.13281946290452915 4.844957138955035 255 255 255
16.996564005436685 -5.884551739153422 44.36367301133797 255 255 255
-1.1582962257648073 -0.5119903017007434 4.380115407387916 255 255 255
0.20481547013899126 -0.7707397829361118 5.752138107946652 255 255 255
24.013860458504993 -11.709992939294493 59.1896113465936 255 255 255
1.703310339002424 -1.2758506972740886 8.754050282581396 255 255 255
-0.019655105493121126 0.28885937605357737 5.316145599074192 255 255 255
71.04559038983608 -25.560003968981178 133.14921452344245 255 255 255
1.4892700979611415 -1.8817534109355925 8.496860754551419 255 255 255
1.1366529897195001 0.31533799710729843 7.065860198017471 255 255 255
21.49864152243727 -10.033577537756862 54.40491537158708 255 255 255
19.048011702984642 -3.521096081581216 42.93659583928386 255 255 255
13.963128308774031 -4.533433215947848 41.681604486426934 255 255 255
-1.5340144778969016 -1.039867761782492 3.8811223141456352 255 255 255
21.734101832234312 -7.549773109794799 54.597605869743234 255 255 255
-1.7643663359067927 -0.6158290797298303 3.4897554890193647 255 255 255
-1.442615673805138 -0.4618020462439275 3.936721823117241 255 255 255
24.998969020856816 -21.681220900225437 62.10551420670797 255 255 255
13.937528088759894 -1.8136956471630525 41.762408871924926 255 255 255
-1.7038013952551598 -0.6129424895665608 3.5774097841797587 255 255 255
26.36398239935767 -14.825473778363895 62.01292908396184 255 255 255
0.2459160699085906 -0.9553774414086003 5.887118600497854 255 255 255
18.45930252193703 -11.679674848510956 49.635776172443514 255 255 255
-1.7156053834272857 -0.9961435898272292 3.600161187153767 255 255 255
-1.6036590968873228 0.6197279269019885 3.5826890075315942 255 255 255
15.657931786875665 -1.50972749126758 43.756436682164384 255 255 255
-1.4639679754658745 0.16248486865286468 3.863817238555204 255 255 255
16.305982409312698 -0.9292619442075197 44.4759291443999 255 255 255
32.75961056990852 -23.849044382229337 74.01077887015106 255 255 255
16.831145983798773 -13.896146878368855 47.63306739742014 255 255 255
-1.233531801597189 -1.1107471744898016 4.340477792149989 255 255 255
-1.7191919526771733 -0.43159104728999814 3.533965447664907 255 255 255
-1.3621688592755201 -0.2927115564218579 4.068041764813008 255 255 255
21.000753997280608 -9.53514914064601 53.26893718647224 255 255 255
24.834023121738507 -17.68021175636537 61.06186264734738 255 255 255
13.436897830500639 3.5349177692610234 38.90776398145424 255 255 255
25.957704444377896 -6.552469304999523 51.86040015743753 255 255 255
13.311158808915591 -2.8985363381524425 40.45061726585082 255 255 255
14.299410728008048 -10.53862765038607 43.26004715253133 255 255 255
26.539680535964575 -15.753391092891908 62.19723565983165 255 255 255
27.84007367151376 -17.35154438681715 64.8225175118634 255 255 255
-1.2254418956789417 -1.1185381311565339 4.3444217601905795 255 255 255
-1.353780188624567 -0.5462691369951987 4.105440696572651 255 255 255
26.351265864379673 -15.736476442013796 62.08023627681064 255 255 255
18.957158639983188 -3.023573287680496 42.603505780731105 255 255 255
61.55359200526565 -35.32605843714154 120.31237559934786 255 255 255
0.7746132582054676 0.24117478433397282 6.829637578132899 255 255 255
15.904627075858322 -10.534400615149853 45.811576232568854 255 255 255
24.42810143417624 -12.399068236817886 58.734483261748366 255 255 255
21.108271948002127 -14.597322763680946 53.512567946727906 255 255 255
-1.2591427001958875 0.6694564903054545 4.1184066051861805 255 255 255
13.177412074747313 -6.910429722840763 41.31082928225201 255 255 255
1.7423496074237754 -2.2793959011673968 8.911608902937036 255 255 255
20.333412004644256 -12.347045778019172 52.50693676725958 255 255 255
0.08093661592632688 0.03384784511199805 5.426904837977892 255 255 255
-1.7636738385776998 -0.1942949357494426 3.4398283482702268 255 255 255
0.11031028048664122 0.07931560751273731 5.430651005324005 255 255 255
16.662808492073513 -13.444817809664551 47.29653412649535 255 255 255
-1.7915289149173572 -1.0741563345327956 3.502522430904185 255 255 255
-1.3782237604047 -0.022278970165695695 4.005373232638112 255 255 255
13.773907364410324 3.5452450892574072 39.64872068646238 255 255 255
-0.33991740470425774 0.34767111734965034 5.0292688824906 255 255 255
23.790845165291888 -15.492289237463158 58.08405193302919 255 255 255
-1.05784735134319 -1.4488349238161604 4.635229864411462 255 255 255
18.74807831390242 -13.164812666002913 50.547831411486925 255 255 255
17.541910716653323 -10.214742331215817 48.07697283300879 255 255 255
-1.460346803181313 -0.8950712126895701 3.9745894824850403 255 255 255
-0.9895027182028099 -1.0798320813488524 4.698711903394768 255 255 255
-0.7544516426756033 -1.6217235329683324 5.127090883707593 255 255 255
-1.6794405203906322 0.5007273941313433 3.493481890734249 255 255 255
-1.571948302545886 0.6325483026492166 3.6425215895643483 255 255 255
0.07309849773862419 0.07551035443776527 5.41883920949117 255 255 255
-1.4534646311426136 -0.7158530905781204 3.9741435858871594 255 255 255
33.93146416673321 -24.022055504890417 75.77712294636386 255 255 255
43.57510099365787 -32.68367919793737 92.02772969704384 255 255 255
-1.7059849579169448 -0.7858080442387462 3.5839763929813913 255 255 255
-1.2361102233689152 -0.9119721392049812 4.314606808330283 255 255 255
-1.5977920200085352 0.20584314585676886 3.638672247578089 255 255 255
-1.343336729178595 0.3983472971051798 4.013749645673246 255 255 255
15.168746869923158 -9.747139825530285 45.324777149463166 255 255 255
22.59011339423916 -5.521559034286094 47.235690265905504 255 255 255
-1.46440568701425 0.8124368878102435 3.797992063438976 255 255 255
30.26242352445174 -13.332835921488417 67.87755544264427 255 255 255
25.315327219492847 -11.301965756499593 60.89493296667635 255 255 255
-0.877397427484068 -1.6038041346743857 4.929637976562493 255 255 255
-1.1671738904609013 -0.45691076566705974 4.364966185376576 255 255 255
-1.518866620216727 0.519621826811104 3.7526476735485597 255 255 255
77.00522709432961 -27.17178621371622 142.67445799316553 255 255 255
1.1091570434991531 0.29937910803413126 7.062911839923493 255 255 255
1.4825541028762572 -1.623450827972573 8.457585020149052 255 255 255
-1.077369814026821 -1.0658162010393706 4.5745718580518115 255 255 255
-1.6309827548382947 -0.4962111018443704 3.6786258191146057 255 255 255
20.811440009475984 -14.657947326922546 53.06574161615756 255 255 255
20.957666153933832 -13.320661444756048 53.751455439850375 255 255 255
1.701730902159152 -2.017530171909157 8.787764957920405 255 255 255
29.027940786735957 -20.40595160503977 67.57300126905848 255 255 255
30.453579313524344 -24.798001463944317 70.46160097741223 255 255 255
22.691128228656726 -6.168125815833726 47.43915288573196 255 255 255
-1.3369342642570334 -0.845724228071407 4.143786230011444 255 255 255
-1.3782237604047 -0.022278970165695695 4.005373232638112 255 255 255
-1.7895064466193569 0.24619398789524727 3.3491625930936344 255 255 255
17.856041645835667 -10.645286398324277 47.864353816227606 255 255 255
71.56642099534517 -25.09540287286857 133.6930630571277 255 255 255
-1.3019918517391607 0.1586811075433619 4.097879984458887 255 255 255
-1.4836049509700717 -0.8090385985863602 3.9448665668185607 255 255 255
93.62154497232127 -38.53910322842305 170.47535104686102 255 255 255
15.960057943380765 -14.442213282150652 47.298380539833225 255 255 255
49.120954630605944 -31.964276411604715 100.66715709620685 255 255 255
1.85789379858143 -1.459169511024786 8.975750346417339 255 255 255
-1.2654857596420452 -0.015882202226912303 4.1737480222874614 255 255 255
43.12822980270251 -17.47780383800382 88.59840530726771 255 255 255
25.73369065194533 -10.409035443888625 61.07742834851889 255 255 255
39.84253104190169 -22.216264330018003 85.34249452799708 255 255 255
22.178865572754017 -13.272764438897003 55.60136696478177 255 255 255
-1.0588385970921392 -1.4656073629780542 4.651545680943961 255 255 255
19.048011702984642 -3.521096081581216 42.93659583928386 255 255 255
17.43356325568673 -9.651527340083877 47.74561951285786 255 255 255
-1.518529723233328 0.18510045298958938 3.760414126307232 255 255 255
28.830799775919925 -16.72457634467788 65.75675305735923 255 255 255
24.548950312643775 -11.34122876145649 59.681294802660695 255 255 255
23.856713870471538 -15.969371717007759 58.04294312950791 255 255 255
26.6861469611731 -6.20824792613417 53.16150370124919 255 255 255
-1.5274553249266716 0.1325526405664451 3.763165825963805 255 255 255
-1.428929928173144 -0.43584673131958046 3.9839244677830026 255 255 255
16.058914222772604 1.331294950258459 43.77702007595627 255 255 255
21.039327374393885 -12.442662548304591 53.650278216845194 255 255 255
95.3288172285435 -38.21754548191493 172.94418789062047 255 255 255
-1.6785539935289424 -0.25203632756885525 3.599695227190837 255 255 255
-1.6597260413867867 -1.0934271426826832 3.688885694528752 255 255 255
14.319507002130077 -14.325561021184921 44.66987629141216 255 255 255
-1.6035089459837786 0.7894280260112834 3.568758409780633 255 255 255
40.33713901231625 -0.9732966319025276 81.23382996574846 255 255 255
26.993619644815777 -14.253026187705329 62.95927301896977 255 255 255
52.69550699534795 -33.493222278902664 106.30932285039682 255 255 255
17.290475738521845 -4.7517615616641 44.903868193066785 255 255 255
1.8763210219593227 -1.7262654064865202 9.0502218393182 255 255 255
-1.4229376350285945 0.8033341736422198 3.872167542183147 255 255 255
-1.4300147460549089 -0.916246678902784 4.03077586063813 255 255 255
13.177412074747313 -6.910429722840763 41.31082928225201 255 255 255
23.91017758388606 -9.35229329256932 58.31783672223364 255 255 255
-1.3951601193194803 -1.0912138447343878 4.120900753261724 255 255 255
-1.7191919526771733 -0.43159104728999814 3.533965447664907 255 255 255
25.360397175102253 -10.790190279504873 60.806578649823905 255 255 255
0.28584712303181986 -0.9404413137944977 5.925235374963607 255 255 255
19.79444639934626 -13.151680364920571 51.647867690922766 255 255 255
-1.42919142556267 -0.7163966762956653 4.020186590289779 255 255 255
0.17650797882943717 -0.4339953897820793 5.566600086318951 255 255 255
24.31610471330238 -14.552002914576297 58.80732309050074 255 255 255
-1.457382021110381 0.28991393073108396 3.869609824425596 255 255 255
22.59011339423916 -5.521559034286094 47.235690265905504 255 255 255
-1.4655881400206738 -1.1548950367792223 3.9866288534506347 255 255 255
-1.5621195082399812 0.4824090763910937 3.6730484526644713 255 255 255
76.22550755055171 -21.95236476026653 141.7316061827177 255 255 255
-1.3465194694937017 1.0404437662576569 3.9477824292949704 255 255 255
0.4254985814981014 -1.1511841046667077 5.981454760435615 255 255 255
-1.055061116630557 -1.0688494522817669 4.603636913591489 255 255 255
-1.4003990197808809 -1.1989090025314821 4.090708968084237 255 255 255
19.007234929075892 -5.759358521764601 44.08987884373177 255 255 255
-1.3345104740308864 -0.9235485595537191 4.172943454702365 255 255 255
90.23491302424945 -51.58399643052558 168.897797862642 255 255 255
-1.3936652968832839 -0.9558764968264059 4.087839114965303 255 255 255
-1.063233355436052 -1.0991558959374703 4.603279536207861 255 255 255
24.894847674970823 -11.310429604001275 60.04108885086251 255 255 255
-1.1555284074638374 -0.7176967359803197 4.423019531855761 255 255 255
-0.186048385421 -0.10489597275570539 5.168805022927781 255 255 255
15.684398118647787 -11.53562639039963 45.48299506005232 255 255 255
-0.9624529853167058 -1.6054055654473056 4.806447651079102 255 255 255
-1.3625616417685262 -1.1861110038110099 4.142665602942071 255 255 255
-0.19907511074002263 0.3334435415005717 5.00079584514895 255 255 255
13.854325335890264 -2.698159643752866 41.22299151553632 255 255 255
18.87848374715547 -11.168845401420231 49.13127808531908 255 255 255
13.260402897766552 -2.8160641150550796 40.39842703213165 255 255 255
71.14578638692181 -18.94331148967284 133.49781094651968 255 255 255
1.652902859333609 -1.4336773193412553 8.712191624978058 255 255 255
-1.6031029745766627 -0.6841486649004863 3.744566999692638 255 255 255
28.47009330817458 -17.015913754020684 65.21999657985019 255 255 255
14.850378145403763 -11.940550324294898 44.231437924220415 255 255 255
-1.7868506251895677 -0.7040157054796709 3.4698486827663584 255 255 255
-1.4977196941525082 -1.1334585580486396 3.939905878609171 255 255 255
-1.3609804877043976 -0.5373784311263037 4.090576635003473 255 255 255
-1.784097851131027 0.7008379346058728 3.309930374947521 255 255 255
33.822144490663796 -25.46040056834153 75.74558562716216 255 255 255
44.56882533028166 -22.962560392412257 91.98000559570492 255 255 255
21.50518032411899 -13.706330160769712 54.6405146408054 255 255 255
14.28460032355247 -11.616706316567257 43.40934731247849 255 255 255
23.479446325227787 -14.238949047533291 57.714852842941006 255 255 255
0.5840643445547268 0.33421695905709575 6.202123063333076 255 255 255
25.866866305789234 -5.841196243823368 51.671190673394264 255 255 255
-1.442139747339845 0.2808050368558304 3.8812371498368736 255 255 255
15.819166826746054 -10.871518067257364 45.634414383146456 255 255 255
-1.643232902420329 -1.067052014060027 3.7076220253925016 255 255 255
13.514815209192232 -10.276938386224048 42.01874622267104 255 255 255
-1.6624644816098664 -0.6434626620634853 3.6393919300913202 255 255 255
69.41991560359111 -31.069228385960262 131.5077930967299 255 255 255
16.206307618493085 -11.23386285557925 46.22335549534758 255 255 255
19.048011702984642 -3.521096081581216 42.93659583928386 255 255 255
1.4668427263761776 -1.553211938174782 8.425852484595334 255 255 255
36.0802178494026 -13.258872692006806 77.46599053564917 255 255 255
0.7879750327423494 0.2063526886394506 6.8568738754633 255 255 255
-1.092979059440502 -1.3994864567038219 4.575658115457899 255 255 255
41.821998753403804 -16.666705234005207 86.80742554991518 255 255 255
22.870953874086755 -11.394488986886161 57.16827854933629 255 255 255
1.8194232147420049 -1.4410440236810562 8.93225877865438 255 255 255
-1.5509276593548957 0.4934067820727193 3.6849058235886045 255 255 255
19.735309668176015 -14.517491851447156 51.6540925207035 255 255 255
36.37187929017649 -16.305820984234618 77.94667801190369 255 255 255
-1.0306095564912274 -0.8975133967294341 4.625362279622694 255 255 255
-0.9862528464129845 -1.1006203541002952 4.7263580669572205 255 255 255
-1.4014984404426447 -1.0810172980732347 4.1033753016410985 255 255 255
21.16861678569272 -12.91633359284012 53.853142665323475 255 255 255
73.70395098655511 -7.241793588743576 133.51243512194492 255 255 255
1.529463162840654 -2.0092666572463616 8.54433760994058 255 255 255
27.659472062902175 -6.6179513883292165 54.67669471122866 255 255 255
20.690406770173297 -12.260609553250376 53.22196673352666 255 255 255
24.474669666923607 -14.907112503496425 59.261315424894406 255 255 255
26.844735747334777 -17.05664526358543 63.115896438269054 255 255 255
-1.0874581264402199 -0.5828900426279996 4.479096323807509 255 255 255
17.669371983114633 -10.211574594404315 48.214411764564495 255 255 255
14.407180085093472 -3.1574125008857004 42.13989398113649 255 255 255
33.779838583269395 -26.141556398459354 75.62241475873697 255 255 255
29.81275745314115 -16.37837512284119 67.61269455112505 255 255 255
-1.226723028914167 -0.8814946512786611 4.3305368658956915 255 255 255
0.058884545365410164 0.10540495629578411 5.429480947734627 255 255 255
1.6835259433109047 -1.4469271309061607 8.728809630912158 255 255 255
23.739106026808926 -10.104264253818187 58.00046773803236 255 255 255
15.97589088982838 -11.0530091469446 45.86797620434977 255 255 255
-1.7554707851194296 -0.9190044796195945 3.521071207449879 255 255 255
-0.5533086839166467 -0.30533123312531874 4.916890906750585 255 255 255
-1.271841575033301 -1.109834413119633 4.292661104683717 255 255 255
-1.5924691092162266 0.0846679807908749 3.680775181050219 255 255 255
-1.7572159960766403 0.678188271609197 3.3507814217914187 255 255 255
-1.752149844672717 -0.66735449037373 3.512955673975928 255 255 255
-1.562593349210447 -0.24375167801679343 3.7676605234034626 255 255 255
-1.4713262678975432 -0.9178843309628056 3.9739219312340666 255 255 255
23.90587101149094 -19.98859895902593 59.86801629990106 255 255 255
19.845449840512963 -2.997496782802825 43.4750412335357 255 255 255
1.7879310559891821 -2.2489194789763043 8.961440565098325 255 255 255
15.968589513981918 1.2220644828013492 42.95592400953242 255 255 255
37.549991504084 -28.639247041493554 82.04067975746615 255 255 255
-1.0059048662210273 -1.579536435429028 4.744496493780266 255 255 255
22.416583476285663 -9.030140545569893 55.96347971154772 255 255 255
-0.19976815187310248 0.29871774699608206 5.034395669458869 255 255 255
-1.0149678681588228 -1.6027860301945327 4.735389269681607 255 255 255
69.94820295334412 -23.05231086638751 131.494908288982 255 255 255
-1.4443688337863558 -0.9310603674926183 4.0000412603879685 255 255 255
64.88942015156913 4.594448849074319 119.42831522513652 255 255 255
-1.4632225481790595 -0.7000206524920811 3.9526612009229583 255 255 255
21.868979690194625 -8.118224680779939 54.964555842762174 255 255 255
0.4312958614145474 -0.4343968065307133 6.102880266362749 255 255 255
17.311957145916345 -4.983631904087043 44.93791968501831 255 255 255
67.94562489977183 -3.7892581188364116 125.57318897651584 255 255 255
-0.5781559457912071 -0.12040403261562434 4.8468203089428314 255 255 255
1.8416234166895034 -2.2963400800306855 9.06666195747953 255 255 255
21.93544275137283 -14.893476151593639 55.14295176864029 255 255 255
1.589245476144372 -2.271152738347419 8.694183601195713 255 255 255
21.58468924195919 -13.866017995641663 54.81647127041824 255 255 255
-1.6061575476742511 0.6322101819178062 3.578077841731763 255 255 255
1.1229517814880967 0.45339769113598855 6.8910624588705005 255 255 255
34.36796202165571 -25.48559762337807 76.66035600485168 255 255 255
22.870953874086755 -11.394488986886161 57.16827854933629 255 255 255
23.210319795207926 -15.270736493607963 57.01701444633878 255 255 255
15.270635896388928 1.7851065928148306 42.322573854108654 255 255 255
-1.5816700433148634 -0.013849982951378105 3.7224806450360015 255 255 255
-0.19504158095808366 -0.48525533028244416 5.189549482881775 255 255 255
1.7352107790575917 -2.971302569160027 8.977970185041595 255 255 255
-0.9062366820647947 -1.5037521621065455 4.86923325920227 255 255 255
29.08267422478172 -4.3840040730850225 56.73821416813598 255 255 255
23.837427033942713 -8.787058002687402 58.09937941967698 255 255 255
-0.928374778885542 -1.5551954280416218 4.831088046509031 255 255 255
-1.3269834358641996 0.7700326888693919 3.9981377096062207 255 255 255
66.21753220035247 -5.903618740639089 122.13564114141947 255 255 255
-1.2167002766247943 0.5358920245132489 4.2074015135072536 255 255 255
20.039113782275358 -12.627775034486845 52.22014970311193 255 255 255
19.018335161695937 -6.63392141267267 49.05423113168248 255 255 255
28.904252316607266 -15.667162923125476 65.70379241752887 255 255 255
-1.5183671769815106 0.30369469415724615 3.7806990600224024 255 255 255
24.52523117660919 -8.371572345991932 59.134826602382134 255 255 255
79.54111435787948 -7.295162066995423 142.76640451690207 255 255 255
14.226751525280875 -1.3339970086405875 42.19164723943511 255 255 255
17.968774141246456 -6.465799689314927 48.330807785576006 255 255 255
19.94501730770456 -12.805487858739623 52.15319804190346 255 255 255
-1.6595081284395576 0.4147912346981909 3.5166861534394664 255 255 255
27.428453272297716 -12.499220945741724 63.13197609770227 255 255 255
-1.5496718463030466 0.1264670411210268 3.683453415842144 255 255 255
1.6927241798915738 -2.947471984725744 8.906235283327263 255 255 255
84.36550813990696 -37.06442074212837 156.9416232034734 255 255 255
19.13782311555559 -13.45165451610697 50.750546132272106 255 255 255
-1.5709596193798314 0.8034391836695055 3.6248877992288886 255 255 255
-1.1913038233181088 -1.1108152186685265 4.399581708861277 255 255 255
-1.6607867313230809 -0.6819818614163328 3.652768567630547 255 255 255
-1.3509487522997259 0.1291139933330673 4.025970820241319 255 255 255
-1.5345354758618126 -0.9362697793842717 3.868600338554537 255 255 255
76.6341605956586 -19.772568272295466 142.21682752448558 255 255 255
-1.1744350543360378 0.136111335382162 4.30452794561704 255 255 255
76.07404156456771 -28.61545635936596 141.59923682727603 255 255 255
-1.2252207124028536 -0.863979958828618 4.326119422540612 255 255 255
65.33082170607969 -40.83993333316532 127.32046614626667 255 255 255
-1.8004003748425061 -0.4938510470321958 3.43328898084519 255 255 255
40.67303444939784 -30.518178900891574 87.10740265412737 255 255 255
19.787804923770146 -14.704489983212595 52.22720941484416 255 255 255
-1.6924889429418024 -0.3616348526865375 3.559413418646968 255 255 255
19.820861505670496 -3.671516863109826 43.22220102964268 255 255 255
-1.3115692159341552 0.31815117174183655 4.0864403692235935 255 255 255
26.472386555136637 -11.483421405538182 61.9278314733605 255 255 255
-1.4626080740771292 0.6400500832955597 3.8056844321667644 255 255 255
14.6033641063448 -4.964151476793011 42.74085674216884 255 255 255
-1.544142897876255 0.01166860643381432 3.753625748697446 255 255 255
-1.0357068118933486 -1.2804656949490212 4.664403740870562 255 255 255
-1.4962911977578637 -1.2388341022917237 3.9513916705867698 255 255 255
71.14578638692181 -18.94331148967284 133.49781094651968 255 255 255
22.038806415436255 -11.731735200077223 55.212799406689086 255 255 255
22.606971101426776 -12.972081334207425 56.135518353204844 255 255 255
28.28659328008283 -13.402510723347165 63.33878982124675 255 255 255
23.959421750318935 -6.415644721857807 49.03033875943095 255 255 255
20.436860370878073 -4.9455535688898 44.60949078011324 255 255 255
18.48410931857517 -5.780900675811528 42.89687965702469 255 255 255
19.24379362045169 -3.3533084917657034 42.664302576343786 255 255 255
-1.477186858724277 0.3681759083238385 3.8195310158476667 255 255 255
-1.3051684305304125 -0.9223430417468313 4.226997572963443 255 255 255
23.017757657055668 -9.893624396008095 57.11234060850188 255 255 255
18.03946321771667 -11.29466668742513 48.66103545316817 255 255 255
24.218352013521894 -6.354077382398796 49.36735289185706 255 255 255
24.53073771167235 -13.99502500185793 58.9138801001745 255 255 255
1.4900009147920943 -0.946741221953099 8.398594938181935 255 255 255
56.60035773643992 -36.44005657435062 112.98715679129697 255 255 255
25.445860507423095 -18.165333922465344 62.21840990145121 255 255 255
24.221018463485024 -13.836294367722195 58.7764255374277 255 255 255
1.0604594415809825 0.11991342922952397 7.179349858093368 255 255 255
23.329786732903184 -14.035867823029667 57.43094389939837 255 255 255
15.058727469793045 -11.508917412671952 44.540019787294305 255 255 255
0.024954599438599873 -0.4334112362282951 5.494419585392997 255 255 255
88.72515183401086 -34.877267906662496 161.61515792709437 255 255 255
-1.3218238344476485 0.33063593178751693 4.059523269698563 255 255 255
-1.5655832852482885 -0.5226927890058407 3.768159945566416 255 255 255
22.08985162729963 -12.807968527844627 55.25262998538548 255 255 255
-0.5341536690023944 0.15038477453168939 4.901281179554431 255 255 255
14.430394664256918 -7.230633473433785 43.43342021573385 255 255 255
-1.338320066256325 -0.4398522154518173 4.10483285227224 255 255 255
-1.6031948081579992 0.9833218184539761 3.575473185795735 255 255 255
24.221018463485024 -13.836294367722195 58.7764255374277 255 255 255
-1.2961236454899974 -1.3331229645655587 4.289314423167891 255 255 255
-0.3757967604864289 -0.21816794415039945 5.169006008561977 255 255 255
-1.609492391741516 -0.25067401644772486 3.689294927894772 255 255 255
-1.006992829879586 -0.7490475147015088 4.643282674765211 255 255 255
25.963998217971046 -13.953798347169155 61.291403095786166 255 255 255
40.068134823607345 -18.73680352035995 84.09102507813975 255 255 255
-1.3504378616975887 -0.32068702580403896 4.082818692707443 255 255 255
-1.4195310155203384 -0.939650762550337 4.047677047768162 255 255 255
20.798785481607048 -6.059805775789143 45.19029322869691 255 255 255
45.264024376781215 -22.40481314778442 92.95079094821786 255 255 255
-1.3213024428850584 -0.912223259649784 4.210531818471438 255 255 255
23.763460105927418 -11.969903349882811 58.10659872536645 255 255 255
-1.3801465320431863 -0.23858110419216622 4.043341836618415 255 255 255
1.6041142661122627 -1.4450981240519014 8.595851567917428 255 255 255
-1.7371170370869988 0.7404309377339829 3.388739143318106 255 255 255
-1.68875419028339 -0.3321813559893862 3.5741823060381828 255 255 255
17.851714220093392 -10.793201610965726 48.50519465221184 255 255 255
18.591964742849466 -6.541444626811103 48.45192414568601 255 255 255
-1.2572109989651705 0.3971750318501411 4.140979618931579 255 255 255
70.84149025465692 -2.828702616500551 129.99103569831985 255 255 255
1.4770420954863899 -1.1740551903969678 8.401156222154661 255 255 255
-1.3619826404658886 -0.3224204630880041 4.070548823598773 255 255 255
-1.4418640558842974 -1.090165478630989 4.040209027976788 255 255 255
-1.1306297764677327 -0.5685503620093632 4.437086066102567 255 255 255
-1.539268505028614 0.6306301670547121 3.683008399681471 255 255 255
1.589245476144372 -2.271152738347419 8.694183601195713 255 255 255
-1.7444198215410485 -0.19220731386617645 3.467436247217136 255 255 255
13.979422398370119 1.8618191451759705 41.228260699188446 255 255 255
23.91454952942746 -5.443089285766036 49.17479906142126 255 255 255
-1.4761067326023098 -1.2093499020704548 3.970264657948145 255 255 255
14.430394664256918 -7.230633473433785 43.43342021573385 255 255 255
-0.9169585468118255 -1.4747413582138873 4.854499075668673 255 255 255
1.6166561416545542 -1.9941856314259827 8.694012769759489 255 255 255
-1.4358715408322635 0.8144185334429349 3.8462325569141105 255 255 255
1.9915551297821739 0.053945008209268196 9.02650364070227 255 255 255
22.082121349122826 -9.052172197303388 55.57304654819356 255 255 255
1.5863853349980415 -3.071430025011541 8.766553538536154 255 255 255
-1.6726219321143145 0.9766433912616971 3.455829416375425 255 255 255
-1.2391206557878511 -0.16342361321365714 4.240086997172189 255 255 255
-1.7380290822321414 0.04648079285840375 3.4510106026373606 255 255 255
-1.8094873083144647 -0.8419004806032242 3.435383654658138 255 255 255
40.18445353172917 -4.317269875731855 81.45063042688712 255 255 255
-1.7602145626262538 -0.6015202008286631 3.481332566954966 255 255 255
38.857402998932926 -16.99585826486208 82.01429833946065 255 255 255
-1.7371170370869988 0.7404309377339829 3.388739143318106 255 255 255
-1.6780022176307416 -0.6731188580392057 3.6196741254845315 255 255 255
20.798785481607048 -6.059805775789143 45.19029322869691 255 255 255
-0.5341536690023944 0.15038477453168939 4.901281179554431 255 255 255
-0.9877454855189648 -0.7334554895433089 4.6596409934959295 255 255 255
21.031158899563223 -5.352541549385553 45.440942944849034 255 255 255
-1.8352649979074112 -0.5540417575264881 3.373050224670472 255 255 255
-1.4349047023691412 -0.5172654998954973 3.967348488136812 255 255 255
25.862403819113805 -10.318822795077379 61.74091939486783 255 255 255
74.79996535016734 -14.534735674118133 138.57665268084952 255 255 255
-1.3705104589644581 -0.20565220974393733 4.036553454771434 255 255 255
-1.3584864839808644 0.2881299421385278 3.9999923349838666 255 255 255
-1.634389160954493 -0.6160834365206188 3.6797256743635103 255 255 255
1.4641028491859822 -1.4832376145813992 8.440228984158045 255 255 255
-1.4606677682974913 -0.7561943487687137 3.9599462626763087 255 255 255
-1.3494031551956618 -1.3317896126254367 4.20727338576224 255 255 255
24.284324998275135 -10.691094377850877 58.98374145766316 255 255 255
27.270436044976268 -12.397052356359653 63.307823049315736 255 255 255
21.437151671093467 -13.571557646880654 54.38309963414836 255 255 255
-1.0072977341605986 -1.1069942802008743 4.704190654215331 255 255 255
20.055667917871762 -0.9980862407705785 50.32278690484169 255 255 255
-1.1700978470100225 -1.176720819848296 4.4447170071211675 255 255 255
-1.4699202057469694 0.8325317028726932 3.8000286500911 255 255 255
-1.1659039472193093 -1.3145968006201858 4.482196337337814 255 255 255
93.25459318926607 -38.783308312765506 169.30490925956366 255 255 255
-1.7521514852104834 -0.023574659873863386 3.4525828332561725 255 255 255
21.169040531841347 -5.189254729156364 45.50663488944721 255 255 255
18.44562480128651 -10.015898693355517 49.43781813030159 255 255 255
91.03977746482187 -36.176204167352644 165.99642359841422 255 255 255
0.9388961970231867 0.2484779321922948 7.074757933549342 255 255 255
31.285707192682057 -13.153284850164281 69.67330967553785 255 255 255
19.28951008136626 -3.7596847277039642 42.72085597588356 255 255 255
-1.7100219102612941 0.9614719915266796 3.408248092553156 255 255 255
-0.9101154762181303 -1.5597389836321198 4.87303840620028 255 255 255
1.6891311648637177 -2.504768605252745 8.84999841096647 255 255 255
15.317770536463895 -2.3307710113275193 43.55125532410034 255 255 255
0.09411844120489782 0.0907949380552249 5.430873814771647 255 255 255
22.615608888271225 -9.934398053171977 56.376073906877025 255 255 255
1.8591570854069945 -1.8687498086527528 9.037894745173336 255 255 255
-1.5700528763453125 0.2881453226509656 3.6992553683594136 255 255 255
73.40582850626615 -27.750109441916035 137.09014294152712 255 255 255
52.700382055624935 -34.44435801358186 106.37350361279063 255 255 255
-1.4670009983468235 0.30096434370433106 3.8514672829395273 255 255 255
-1.5008324906932349 -0.15009029565726867 3.8309879641167104 255 255 255
0.257902315432504 -0.03458776093154216 5.464942153576563 255 255 255
19.602468539753684 -10.446077996731251 50.94550737807589 255 255 255
17.01435294190049 3.2098641569735475 39.01400407688019 255 255 255
79.95503764965092 -30.77388443493832 147.78237601447708 255 255 255
21.302707749729635 -13.76380430449199 54.373897794782394 255 255 255
28.206381787162144 -6.37710234084308 55.32507243797945 255 255 255
15.41645074988451 -11.031781162509194 44.96630297900554 255 255 255
-1.7745025363176117 0.784354476416304 3.3107757369438886 255 255 255
24.540950396933763 -12.66365563646503 58.47248537103658 255 255 255
-1.4813877607326897 0.26755506162694676 3.8249673145054337 255 255 255
-1.4806901457404928 0.2978808618365319 3.824701594085685 255 255 255
-1.3662742999503612 -0.9109206074776957 4.12507553580943 255 255 255
-1.296080199833716 1.0893163760439928 4.002071971705732 255 255 255
-1.4192141258463045 0.9514889280812693 3.8498894425601393 255 255 255
-1.6124286254619138 -0.235344320980701 3.677048323162732 255 255 255
-1.4134231339846248 -0.2859808871300266 3.976238618094842 255 255 255
22.357544619163967 -15.201038545900955 55.92940735022066 255 255 255
1.4574733814696381 -1.5989513320165536 8.432665081990404 255 255 255
-1.472649875459975 -0.39323102860089676 3.9071773353799863 255 255 255
13.82627378362748 0.6712395555036771 41.19714228309774 255 255 255
0.06257388496166698 0.035162514978465655 5.44068611707991 255 255 255
80.51968164197328 -36.020851721982375 150.9835196454355 255 255 255
1.165703874065759 -1.9884957168646173 8.032133423537823 255 255 255
70.28674712077354 -25.04972480622766 131.91515550751492 255 255 255
22.828977687216376 -14.996194547061732 56.86496847006214 255 255 255
23.11418416292861 -15.337689595188118 56.73540273852352 255 255 255
39.82028200630706 -18.99180996986444 83.75349901310229 255 255 255
-1.2402840364402796 -1.2020154888660046 4.33887572425265 255 255 255
23.483519693229066 -6.252548384603669 48.40612214738728 255 255 255
-1.1492321631081526 -0.5094579178736701 4.3965313532768935 255 255 255
0.008575398055541979 0.39618717339924164 5.188829201013975 255 255 255
20.092475622327985 -12.828636592335286 52.29759255437039 255 255 255
76.12185399319272 -28.955903924019342 141.77040154314912 255 255 255
-1.5673251274449436 0.46689577403776117 3.6594012103227875 255 255 255
28.904252316607266 -15.667162923125476 65.70379241752887 255 255 255
-0.4924784599455285 -0.9083471549811797 4.811194333792164 255 255 255
-1.0059048662210273 -1.579536435429028 4.744496493780266 255 255 255
-1.0642917961254643 -1.5480023115646773 4.651227768905652 255 255 255
20.54305906905893 -14.625315378659279 52.81987278882032 255 255 255
15.958258426896984 -3.993908315298724 44.498591745423774 255 255 255
26.1600482300373 -5.643423811092555 52.20016774277784 255 255 255
21.018837820009068 -13.755620507083357 53.74733675795527 255 255 255
28.408509189395176 -6.29525618852454 55.65003036531593 255 255 255
-1.7554707851194296 -0.9190044796195945 3.521071207449879 255 255 255
-0.09697911675322385 -1.528790010352609 5.169763979516101 255 255 255
-1.6929215898771546 -0.6834836045227695 3.6078590459218782 255 255 255
24.30785835870102 -6.127934690089935 49.51177217972598 255 255 255
13.827747336190132 -12.283768983607365 42.93829924580121 255 255 255
18.152054781089348 -4.896290604413476 44.2686729172169 255 255 255
-1.1053967157784197 -1.2287226796607713 4.535249333853698 255 255 255
12.927535271539245 -3.133865720212615 39.96088449466708 255 255 255
-1.7253946872530932 -0.6320347194264055 3.546008152886402 255 255 255
1.703310339002424 -1.2758506972740886 8.754050282581396 255 255 255
-0.0891203491726967 -1.3120720300280648 5.207398602670757 255 255 255
1.6025485614715163 -2.556847870168599 8.731106391298384 255 255 255
-1.3762010687476967 -1.322361998507398 4.1637560806753955 255 255 255
-1.6036590968873228 0.6197279269019885 3.5826890075315942 255 255 255
1.6474233432882486 -2.017980898115745 8.718693093355782 255 255 255
76.86314979147967 -27.435112839182587 142.47356256117203 255 255 255
23.294539277061887 -11.581199295787204 57.693383205906656 255 255 255
1.7204479558488903 -1.9895675883253552 8.852091195731356 255 255 255
-0.8721280792115358 -1.4894753016916953 4.917357272284006 255 255 255
25.624600112517143 -18.712686803767685 62.70062704488996 255 255 255
22.837848730107225 -16.257326558811595 57.53421068506246 255 255 255
13.854325335890264 -2.698159643752866 41.22299151553632 255 255 255
24.343388197831292 -10.878374784025237 59.03132755377032 255 255 255
-1.6705839532763391 -0.6558735189396568 3.6300315674354904 255 255 255
19.78407604956903 -14.68467039135167 52.05756202132529 255 255 255
-0.615908515467718 0.3631072887096555 4.3116895497214305 255 255 255
-1.2230621985651717 -0.014589884240323241 4.247130572262084 255 255 255
1.807314589201261 -2.0158999795512287 8.977992687024758 255 255 255
27.979401194232377 -14.241889738783435 64.36034666304514 255 255 255
1.4959780429367326 -1.4789829555083274 8.461495029604073 255 255 255
20.985399794118216 -5.864170803137298 45.699222373148736 255 255 255
-1.2167270982160148 -0.7477951866092933 4.335437559933565 255 255 255
-1.5154608840643524 0.7717224708608437 3.7124391288461247 255 255 255
1.1569949575696017 0.3745369460556281 6.978258631017051 255 255 255
-1.22074569206812 -0.8907001417516922 4.342389423271802 255 255 255
1.4803352778462116 -0.7127107937976159 8.372599328876117 255 255 255
1.6939166420704952 -2.978863268379142 8.925065826574462 255 255 255
-1.0517547105419929 -1.3009870233666638 4.633495935344636 255 255 255
33.779838583269395 -26.141556398459354 75.62241475873697 255 255 255
-1.2499325998574848 -0.7197018512138336 4.273637160062877 255 255 255
38.69444023995441 -18.716230849961054 82.08237460955432 255 255 255
16.891696617569547 -3.3443335393153415 43.963400106127445 255 255 255
-1.603043872234742 0.5057152244245277 3.6229287806596626 255 255 255
-1.3504207849895318 0.6462318868581042 3.9958633447727094 255 255 255
1.4908924839322009 -1.9900870104232335 8.494886519156017 255 255 255
64.88335467737923 -4.9163662593951685 119.64174642004416 255 255 255
23.12183651938752 -12.041078423364471 56.790512075140626 255 255 255
1.480496880442259 -1.6716895756079684 8.454615144423512 255 255 255
54.80308780373402 -22.39098804931052 107.67817893616706 255 255 255
-1.5517073000411155 -0.9085282086992145 3.853650995508936 255 255 255
-1.541980887909276 0.4878498489210895 3.699533843332571 255 255 255
28.196287482201257 -17.01529792840124 65.14433324875357 255 255 255
13.924325788864179 -1.9476572004308128 41.65351722284845 255 255 255
-1.096604579365208 -0.6837516541987054 4.494600790559659 255 255 255
-1.4770510384489905 0.33542974262862624 3.807285582987312 255 255 255
-0.9335180945982426 -0.900191562322553 4.762328100132037 255 255 255
14.8132637283798 -0.6594650461782529 43.255168779937456 255 255 255
-1.4657571992625162 0.37653857949490793 3.848247276280671 255 255 255
23.11418416292861 -15.337689595188118 56.73540273852352 255 255 255
20.24211701324965 -10.745254345420813 51.72233495692094 255 255 255
26.121475598265114 -21.4911028252232 64.02115075163165 255 255 255
16.01408919720167 1.8228398273164805 43.53251206981802 255 255 255
16.202925155310503 -3.5909880523039672 44.13529210276567 255 255 255
-1.166798572352964 -1.275605120466092 4.463445948392691 255 255 255
-0.48517524668991874 -0.11796050147857655 4.848941316164701 255 255 255
-1.2848295626727888 -1.1914935765017738 4.265079848124077 255 255 255
1.6209168163958405 -2.242046527795722 8.732306467845543 255 255 255
22.545508509007803 -15.193301609716762 56.32539023741301 255 255 255
-0.9418546708068362 -1.1000469730547373 4.7962086879163275 255 255 255
19.873115947843 -10.455183324393909 51.139515718322734 255 255 255
1.100208147532711 -0.42358579578940836 7.059725812171313 255 255 255
27.518302449007944 -14.639730468101694 62.7891482982024 255 255 255
26.832878334887347 -14.496968404202248 62.54800742702061 255 255 255
1.1364429923169093 0.4794528431624313 6.661076707941617 255 255 255
21.133795094393626 -15.09306078513949 54.02721125785627 255 255 255
1.9212307857857285 -3.2533196638978317 9.298912443948984 255 255 255
13.940239179352723 -11.660094007492468 42.9080741281649 255 255 255
51.339338648374934 -28.11156046959336 103.33376690239022 255 255 255
69.94820295334412 -23.05231086638751 131.494908288982 255 255 255
1.5358356539693325 -1.9903258836724032 8.556036967251728 255 255 255
0.2554542597433006 -0.09295183705721616 5.50915682972591 255 255 255
28.60371523417384 -17.421838815757607 65.81892791270947 255 255 255
