ply
format ascii 1.0
element vertex 690
property float x
property float y
property float z
property uchar red
property uchar green
property uchar blue
end_header
0.49030298389414007 0.04962803002557973 4.755251175001732 255 255 255
2.143552688807525 -0.7489028115814962 4.985161640438588 255 255 255
0.9126121777291141 -1.0722464053059397 4.991145614804578 255 255 255
0.20288192896938975 -0.02849942185882368 4.647940404511094 255 255 255
-2.36969977842923 -1.0228688148370537 4.894448283839547 255 255 255
1.7586288663233043 -1.6691222897972375 5.033899986929868 255 255 255
-0.46265236216546357 -0.42461164632640913 4.632953142026165 255 255 255
1.765893838145603 -0.005836878088279986 4.954018491375755 255 255 255
-1.1427790906856112 -1.5743112843157214 4.9695441040943225 255 255 255
0.25632717992592946 -0.09749250287996264 4.64835873568962 255 255 255
0.20439505002795788 0.1376343520949171 4.635045156390642 255 255 255
2.0130168954051184 -1.1927673867723707 5.002220322701838 255 255 255
-1.8303071035276135 -1.4599051327109693 4.954262909028612 255 255 255
-1.8957694737687445 0.5609579741556112 4.847438118351152 255 255 255
1.4033186191784948 -1.083277076457043 4.993793688522742 255 255 255
-2.184103293426657 0.28377009015487054 4.8330654837199 255 255 255
1.6160219138680405 1.1153239670995698 4.139118780859178 255 255 255
2.0796072115180566 -1.286563254952181 5.006007809239538 255 255 255
1.5641276131584736 -0.011048790822560535 4.941028200351401 255 255 255
-2.418183293263374 0.712668810073471 4.812768421909027 255 255 255
-1.9523996997455526 -0.3929121522912647 4.902796517668411 255 255 255
-1.9506136854559701 0.16289470219110655 4.859831507427828 255 255 255
1.6074442237339532 -0.7588217353468961 4.983041391857132 255 255 255
0.24309468394928346 -0.24851471850485143 4.652749378477812 255 255 255
-0.460532304510661 0.31106413073787503 4.51047750835773 255 255 255
-1.4171818546249153 -0.549256523486575 4.910678634189078 255 255 255
-1.8667997679319301 -0.7333888753677923 4.913769974788615 255 255 255
-1.602552742676986 -1.1992248217570969 4.936136521830771 255 255 255
1.552869752612582 -1.5932733756065987 5.019596639035646 255 255 255
1.0249811161375175 -1.4935912501374429 5.018767552742829 255 255 255
1.4914320733597517 0.10450889301612734 4.9377023834301115 255 255 255
1.4944948987523032 0.184045192889698 4.925712061182065 255 255 255
1.2707054483232043 -0.5501341090855283 4.964850240939638 255 255 255
0.33783750235155724 0.4573840111863039 4.461201504164454 255 255 255
1.748647344868495 -0.9504059542284861 4.9963113343614705 255 255 255
1.7388101464652974 -1.3512778420386853 5.017912991536109 255 255 255
-0.22288639887775277 0.078508919971139 4.550966724695007 255 255 255
-0.37213332198853305 0.4602104042069779 4.4412245273179565 255 255 255
1.656317438790419 -1.113651490958436 5.0011866635952895 255 255 255
-0.14356970125099972 -0.260764476439391 4.5818059314989545 255 255 255
-0.47031587839025407 -0.24925883424885154 4.6408520706556855 255 255 255
1.8189138886838934 0.3130140001624961 4.918097390121896 255 255 255
-0.8586174144082536 -0.09750028111637034 4.678637352550728 255 255 255
1.981509219299561 0.5774830819898225 4.9141324047979165 255 255 255
1.4212871899552095 -0.4632230676186564 4.960418125948292 255 255 255
-2.2291099653857596 0.8943940629093622 4.817837518942626 255 255 255
1.6669543963189488 -0.39193115094821634 4.965864766069074 255 255 255
-1.787620398861715 -0.2963644656436066 4.882762816015711 255 255 255
-0.5566390434249002 -0.44843029816450325 4.633713100899146 255 255 255
1.0201991463298372 -0.8404209021642679 4.97707287196004 255 255 255
-1.2924557217708952 0.9103283085624637 4.381887418089655 255 255 255
-2.0935286571163867 -0.45700120665912386 4.885703618765499 255 255 255
1.7651470808968366 -0.19555077266473436 4.969086152370135 255 255 255
0.9009300429272736 -1.0024945967842827 4.979825438362249 255 255 255
1.8517398864586585 0.7982477517457207 4.891622419432105 255 255 255
-1.1236463304252633 -0.38972465141722085 4.658666222287145 255 255 255
-1.6157342224595748 -0.5659266944417068 4.896780812297086 255 255 255
0.4146708573999869 -0.8250345888915493 4.795965614609796 255 255 255
0.8600096140448499 0.3621685943195521 4.466249315766813 255 255 255
0.43545642058373296 0.909153707515258 3.427179934695097 255 255 255
0.784688311363656 -1.5042170983768814 5.005837621726363 255 255 255
1.5928154693514527 0.8730785910736104 4.8939817667058545 255 255 255
-1.262835009293905 -1.3803994465193539 4.959483858052806 255 255 255
1.4696377664329787 0.39533957980034945 4.924277744440242 255 255 255
-1.6296160694791504 -1.0678879061132565 4.929957515409989 255 255 255
1.3592580734958808 -0.05384428444925689 4.942674384698156 255 255 255
1.7878933189072592 0.7589163726835157 4.8926419383855455 255 255 255
1.3329986356171588 -1.0836190404331092 4.997415964526657 255 255 255
1.4744578696289816 0.38054155846271254 4.916687437777216 255 255 255
-1.4524188813763852 0.43092495602755526 4.413343231143709 255 255 255
1.4902620119955265 0.5643649517201211 4.909934275897651 255 255 255
1.814485088347903 0.8780659822680903 4.903100883401176 255 255 255
1.3560253679681264 -1.0939567464291897 4.9940320520579995 255 255 255
0.9239806323224936 -1.536470881083345 5.004300444907914 255 255 255
1.5681872952043316 -1.6451207986165108 5.028977711879522 255 255 255
0.3819310494638372 0.76933185776869 3.4387640757224816 255 255 255
0.9927969738819735 0.38364097389885254 4.470889299857851 255 255 255
-1.6722397793891095 -0.19909463225913127 4.886089077017824 255 255 255
0.8563284851290219 -0.8918349921090145 4.974345247229466 255 255 255
1.5000689521040924 0.9259679428945022 4.892472204710383 255 255 255
-1.7884413796028695 -0.11175821980883614 4.8905106731917165 255 255 255
0.9865105733496162 -1.4865305604491663 5.014659053724252 255 255 255
-1.519353968866338 -1.472356772594071 4.9551159719259665 255 255 255
-1.919486809198832 -1.2759949083178912 4.946680602439723 255 255 255
-1.8780951044889835 0.4972443610722587 4.833381154702042 255 255 255
-1.832217519022216 -0.8078644066119443 4.913952447675155 255 255 255
1.7254427962585177 -0.010109628911002323 4.945984655232851 255 255 255
2.048143085345854 0.10361337240919671 4.943062936377113 255 255 255
0.5206252721957132 -0.09353149206443936 4.690784887939312 255 255 255
-0.4467540313417393 0.05859091742397285 4.628962957496158 255 255 255
0.13636497933713024 -0.09010615668774138 4.646867694975355 255 255 255
-0.2940816198839635 0.6599908051019387 3.4307956834324997 255 255 255
0.3502230835356065 0.8371193147418661 3.436440872701014 255 255 255
-0.17224852753735143 -0.5589941998698464 4.646910752422448 255 255 255
0.5896734413114691 -1.731767865703861 5.010451342572159 255 255 255
0.4146708573999869 -0.8250345888915493 4.795965614609796 255 255 255
-1.851670864646662 -1.3158153464055937 4.933979944120244 255 255 255
0.14307007637545702 -0.028028380587905927 4.651103306880932 255 255 255
2.060603218960859 0.8913784058034679 4.895127122349777 255 255 255
1.3924086310456472 -1.2973891965559834 5.008603262605843 255 255 255
0.781641581187538 -1.6137140291143217 5.010573862653246 255 255 255
2.1100068549997837 0.5730739879550444 4.905655157745593 255 255 255
1.0256478314256625 -1.3687770354366926 5.011265271337257 255 255 255
0.9557826581151387 -1.0839209265675223 4.991397701186692 255 255 255
-0.2579432105614541 -0.9399016995967742 4.674170720742711 255 255 255
1.804041392126888 -0.02027871564955972 4.9512255412517705 255 255 255
1.1592347961753187 0.35436882960838345 4.4695713379297 255 255 255
-1.9400606183220994 0.263007237634195 4.853174336423324 255 255 255
1.651609455306264 -0.5291313643552662 4.968394392540682 255 255 255
1.8514565823168114 -1.515323025913245 5.018896575349719 255 255 255
-0.5681266368943496 0.05406274515732186 4.627164109853356 255 255 255
0.8678324165266275 0.4418738768147146 4.462381928990138 255 255 255
-1.7297957722879629 -1.2695156510961998 4.9349879367552845 255 255 255
1.673779332090398 0.6396369623319228 4.905374378241134 255 255 255
-1.6693693496973312 -1.182080440209157 4.934448128945614 255 255 255
-1.9151812192185966 0.8322793741933445 4.826274573573618 255 255 255
1.8415095129279164 0.7016304073663934 4.906038130220877 255 255 255
1.404434063582658 -0.7272434522459338 4.983993540156084 255 255 255
1.268995229874036 -0.8956847335761595 5.000030784200212 255 255 255
-2.2138845212152716 0.3370264600648466 4.832724944817635 255 255 255
-1.3577589848526095 -1.206637677062101 4.943598911704925 255 255 255
-1.4919311574689988 -1.021769950694235 4.928935687768668 255 255 255
-2.049344927065551 -0.11761118067490224 4.868172380628882 255 255 255
0.2469839580842445 0.38472243332091977 4.458406612580447 255 255 255
-0.16532866597455528 0.7395025110957417 3.429027773382497 255 255 255
-1.4087470101013833 0.33060345904044663 4.416651957723851 255 255 255
0.6045192559415282 0.9649124815934214 3.549481910101247 255 255 255
1.8246579685952984 0.6768669860844665 4.910786126727215 255 255 255
2.224227079062817 -0.05360274506855432 4.94211883251505 255 255 255
1.123005408717036 -1.0226549865158552 4.982794170190677 255 255 255
1.6574474795950334 0.9124132511796255 4.890085571568095 255 255 255
2.0032189367715953 -0.22978290126465273 4.955835426131831 255 255 255
0.12523732251534886 0.055297896949011244 4.638475495490502 255 255 255
1.7915800413634348 0.42699673268801835 4.925674857454019 255 255 255
-0.5035682752606584 -0.25887291251817407 4.6380844383166595 255 255 255
0.6020242215254664 -1.3736465337831627 4.995263413448173 255 255 255
0.47679444225728534 -0.12925296032966177 4.718886119416226 255 255 255
-0.507890163976521 -1.1273002525343132 4.54760074604542 255 255 255
0.4907080940708075 -0.7866662103370781 4.781620721122848 255 255 255
-0.9232229704067186 -1.4196842543263424 4.966594451194645 255 255 255
1.38791762756093 -1.230308601168592 5.002724542475616 255 255 255
0.9554758582889932 -0.6947235135045268 4.966590003525085 255 255 255
1.1592347961753187 0.35436882960838345 4.4695713379297 255 255 255
-1.8288365608256323 -1.4709185740193746 4.9571518906762195 255 255 255
1.7293880743629697 -0.5086100499406384 4.9680430759378496 255 255 255
-2.3600461455144086 0.02595674368832213 4.865176692012804 255 255 255
-1.029896280870518 0.49279627174007323 4.430038950538198 255 255 255
0.1162977366394167 -1.119870724459482 4.565014513714327 255 255 255
-2.207007728856126 0.6002105918600436 4.817717285339852 255 255 255
-2.410236533046001 -0.38613442013975174 4.8799311189283 255 255 255
-0.4970858230285911 -0.9817388471022983 4.5580214176476535 255 255 255
2.1565770991945854 0.8701666865558553 4.89542108773452 255 255 255
1.409301305328501 0.27170600525615335 4.9203685832097355 255 255 255
0.12351915469359857 0.4438258939211941 4.454369198883235 255 255 255
1.4440859925785465 0.19058509273154467 4.927949124674948 255 255 255
1.7780346239758047 0.48530408195798197 4.9082930671319085 255 255 255
-2.5215033796680264 0.7111945098159257 4.807335127277684 255 255 255
-1.5761920218422623 -1.050950176976911 4.929196649740137 255 255 255
1.2241637220581938 -1.6095703120583404 5.0094833614747305 255 255 255
1.4212118510982084 -1.6559047561502693 5.027166941113673 255 255 255
1.7873806969888344 0.026651434148153685 4.937624174717758 255 255 255
-2.464165696155443 -0.8943123191824992 4.896465038911916 255 255 255
-1.3900801201108992 -0.8425756358197841 4.930245811972133 255 255 255
-1.1181194701259316 0.33110170409680395 4.426335292086398 255 255 255
-1.0624548262185822 -1.4998771043846484 4.97605732907012 255 255 255
0.5194855160344994 -0.30256829849739036 4.769226252155629 255 255 255
2.1183149636995906 0.6922503315744375 4.911109831078754 255 255 255
-1.3113113844103044 0.37260730641362727 4.415852017492723 255 255 255
1.5136807539896604 0.10464771449873077 4.938839883003014 255 255 255
0.5303110775261741 -0.11186468880748894 4.691282410846516 255 255 255
1.9542593031166335 0.23107783726608225 4.925230893442101 255 255 255
-0.49961392802489546 -1.1101516395826105 4.552914484453369 255 255 255
-1.9680537914508152 0.26070547557141127 4.862910568897663 255 255 255
1.6213154806426264 0.17962981388189847 4.927053657266855 255 255 255
-1.305264338612552 -0.7273752861607614 4.918406844421359 255 255 255
2.127292923923738 1.1536531835553299 4.8026795593348375 255 255 255
0.2169533494744788 -1.0383865632048452 4.578659177936804 255 255 255
1.4864300439516749 -1.2498526795262135 5.005087232943399 255 255 255
1.8436436357879875 0.26498392066789855 4.937122648774771 255 255 255
1.316117139328068 -1.6622896804093077 5.028187096296296 255 255 255
0.1453119953155804 -1.1143926377992446 4.5617397652929235 255 255 255
0.6970101818360707 -1.464535524837533 5.001326701230248 255 255 255
0.5550162464912543 -0.1836294835010137 4.755217276638709 255 255 255
-0.2066907073775141 -0.4029774817488132 4.6053480035229635 255 255 255
-1.9289860463118247 0.015795966358551693 4.868555395134358 255 255 255
1.8775115710573584 0.0016809793306557998 4.9418497912360495 255 255 255
-0.49714041693750943 0.02881659506862372 4.6222194578235 255 255 255
1.5474428566002723 0.627776630802584 4.900716322636077 255 255 255
1.5140717629826832 0.08051248998800929 4.941670471185341 255 255 255
1.6041057334693265 -0.8962322966794434 4.998053968189863 255 255 255
0.4951291513095643 0.06400935995636613 4.762053423956143 255 255 255
1.632502760889489 -1.116901125709335 5.009182340645533 255 255 255
-2.0414661064490827 -0.19004759433059965 4.873782164052909 255 255 255
0.14307007637545702 -0.028028380587905927 4.651103306880932 255 255 255
-2.3762616348950347 -0.7532690421330189 4.883935368176985 255 255 255
-0.2687321587207432 -0.45198364885009795 4.655799015242585 255 255 255
-2.03079543428083 1.1346135207804315 4.7119148779510835 255 255 255
-2.0414661064490827 -0.19004759433059965 4.873782164052909 255 255 255
-0.49961392802489546 -1.1101516395826105 4.552914484453369 255 255 255
-2.185425294101154 -0.7708033240582169 4.888533206672047 255 255 255
-2.209756816975628 -0.38527273216498364 4.875655637305462 255 255 255
0.8923559692018426 -0.89732788739928 4.982781632126877 255 255 255
-1.4918981468470351 -0.9093480702190436 4.930044932901287 255 255 255
1.983452275283295 -0.31672493576230704 4.961842824022048 255 255 255
-0.16553548349734207 -0.43269889858297583 4.627667080967013 255 255 255
-1.2969247153580623 -0.6313682654568177 4.918052238540818 255 255 255
1.7908737827055776 -1.476948247663621 5.027678687526132 255 255 255
1.4261397362333508 -0.953349134807575 4.992780181066152 255 255 255
1.5112534934471074 0.029047694181416357 4.941324583057439 255 255 255
-2.041734386142161 0.18415891224704067 4.850655586708537 255 255 255
-1.562281822769206 1.060145833769631 3.1919670082500926 255 255 255
0.8586586404844184 -1.2852004522457934 4.997463979530999 255 255 255
1.456300558726453 -1.2203752047757028 5.011639323910739 255 255 255
1.764914941009909 -1.6405846715925527 5.017113034528615 255 255 255
1.6621497072831142 -1.3183765353980779 5.005812063300431 255 255 255
-1.4918981468470351 -0.9093480702190436 4.930044932901287 255 255 255
-0.5153637807488087 0.07136815153673434 4.630573508690343 255 255 255
-1.862442736536632 -1.460732309551455 4.942683265427313 255 255 255
0.47537670243734137 0.04410596968535207 4.7654896207513975 255 255 255
0.24284780933350972 -1.274248164488727 4.614670531472042 255 255 255
-1.2474106490495933 -1.5766145046083895 4.963201795754204 255 255 255
-0.4279556334441176 0.05304520001848422 4.630113739446435 255 255 255
1.4515800668585732 -0.34482151446640186 4.95495111721912 255 255 255
0.2875550252014976 0.7363656869827198 3.4397200445519904 255 255 255
-0.4788389011230277 0.6446554768778137 3.4271630825355666 255 255 255
1.5895047942953329 -0.2058602907221282 4.962994986878874 255 255 255
1.6664293438313387 0.7937053088153565 4.893282131735677 255 255 255
-0.05063886940426788 1.0716124070108648 3.2362933083393925 255 255 255
1.4409525342819065 -1.68877691852082 5.030205582441299 255 255 255
-1.0011675633942858 -0.045780894422731665 4.733325974914937 255 255 255
-2.092101854843121 -0.4011840764937694 4.89027838384912 255 255 255
-0.04268420594314057 -1.553008644271838 4.584266070108579 255 255 255
1.4719206897612178 -1.2833719165749595 5.010287157580763 255 255 255
-0.6135663820576475 0.9339137337640843 3.3635398739644695 255 255 255
-0.05816845165532525 -1.5469621529694666 4.591019735703781 255 255 255
-2.225957814459392 -0.37569315109208906 4.87429459318299 255 255 255
-0.18354574828780348 -0.7682622619073831 4.357252341760866 255 255 255
1.9884783923415732 -0.04501028663153776 4.939652929687279 255 255 255
0.9364344566876714 0.47308341545714033 4.468323347403301 255 255 255
0.9067364652443718 -1.285778830453185 4.998806474106876 255 255 255
-0.11864522221454482 -0.35667787422122643 4.677059870228288 255 255 255
-1.262835009293905 -1.3803994465193539 4.959483858052806 255 255 255
-2.0661705554425995 0.038697404266449346 4.873913318607434 255 255 255
-1.6725401095472496 -1.197072695313617 4.94265222179458 255 255 255
0.1693675397150014 1.0691358649691756 3.368787756174336 255 255 255
-0.39458290785719213 -0.6470317827085459 4.663297712066335 255 255 255
-2.216321121175678 1.000657276238515 4.800982754954756 255 255 255
0.207237973555693 -1.024442563345681 4.588799300129771 255 255 255
-1.7337490617991211 0.35918265605293176 4.853857411278639 255 255 255
1.2306562627163622 -1.0883731005347894 4.99848954232231 255 255 255
1.28673857233455 -1.0782208656132226 5.002232611925251 255 255 255
0.16870713241306778 -0.42341288121599363 4.641033019086251 255 255 255
-0.13239040173657082 -0.24769246049397636 4.585060458867796 255 255 255
1.5292394757840053 -0.6311728830788661 4.974698366638822 255 255 255
1.9958495067035111 0.014583976272855558 4.953671639794693 255 255 255
1.0607376861401943 -1.2975679768770076 5.0003207180364635 255 255 255
1.1412255159779832 0.4409256925722164 4.468136210909093 255 255 255
-1.7151101362734467 0.30733996084218346 4.855395914331143 255 255 255
1.6278650656302112 -1.289054884076575 5.01092981781049 255 255 255
1.9928083877722391 -0.24270114084332917 4.9583858286010525 255 255 255
1.4921580218774935 -1.4856600186851383 5.032678500588474 255 255 255
1.4261397362333508 -0.953349134807575 4.992780181066152 255 255 255
-0.10262604179385751 -0.37850224602535115 4.680964211089284 255 255 255
1.7661239164181464 0.5002260712174805 4.912880100947999 255 255 255
1.3234656043338868 -1.121927082304031 5.00030600223175 255 255 255
0.755251211025919 -1.5915066719657076 5.005971923601655 255 255 255
1.4748637732474263 -0.2849581315074638 4.952306692982958 255 255 255
-0.4301665806517953 -0.24974872607421475 4.642031009241575 255 255 255
1.7374206813071853 0.46025149856862096 4.9266265236000155 255 255 255
-0.5262339187123171 -0.16032697335218085 4.632459647726416 255 255 255
1.434205359525009 -0.2825446719544061 4.958484783549286 255 255 255
-1.9421301196225709 0.27118243605165665 4.856979375225149 255 255 255
-0.37726689519850787 0.8627238543344833 3.421505910171798 255 255 255
1.6227337969184965 -0.04292467640747396 4.943889242881707 255 255 255
0.49577437809123087 -0.6256218742269261 4.766162211070417 255 255 255
1.639916815135722 0.10138955842668396 4.935701820133449 255 255 255
1.9395120855393022 0.7469607465849909 4.892908673678227 255 255 255
1.4266875135518262 -1.0866164229829172 4.994477159960669 255 255 255
1.3581855603565594 -1.2930888373576064 5.010093022577049 255 255 255
-1.1131930502092393 -1.4628189487617589 4.95674489386268 255 255 255
-2.4921376241942936 0.15871273635432928 4.835223054532328 255 255 255
0.7853393559453464 0.12242955848840698 4.7633158125681065 255 255 255
1.989149659787054 0.8636301068446187 4.897077038416209 255 255 255
-0.6129175651404672 0.7154137978834453 3.4244050313216365 255 255 255
-0.14003910864911073 -0.07716241548695386 4.492216731460786 255 255 255
1.3584102430862426 -0.7799729392110245 4.9820974205161646 255 255 255
-1.7825509421600525 0.6743436003046238 4.838901291664476 255 255 255
1.409301305328501 0.27170600525615335 4.9203685832097355 255 255 255
1.5369650502356718 -1.3988352568899356 5.022279871699199 255 255 255
-1.053554715137605 0.463639932232615 4.419322593719229 255 255 255
-0.13879979125102532 0.7670190639179915 3.4305062811203455 255 255 255
-0.6952904524142224 0.09897661583011098 4.719179487530853 255 255 255
0.6864649056653869 -1.725698246209859 5.015177372003818 255 255 255
0.7777926702810802 -1.646837168979638 5.018684381996341 255 255 255
1.4749592171925268 -1.2998461239753127 5.004262963960011 255 255 255
-1.3050007212994332 0.08808011336885264 4.662577600371674 255 255 255
1.051430192996343 -1.0453351469814591 4.98560073124385 255 255 255
0.09326699699529017 0.6547113651254092 3.44092628142921 255 255 255
-0.6129175651404672 0.7154137978834453 3.4244050313216365 255 255 255
-0.8557001794937698 -0.3196739655014929 4.743160462802307 255 255 255
1.5733113895241417 -1.5626561153984078 5.019597685413889 255 255 255
-0.39490526077673876 -1.11890472930012 4.57223173990437 255 255 255
-0.8198225931374381 -0.661030759651529 4.746725232043862 255 255 255
1.2535351606803935 -0.0233867519010353 4.936499105902461 255 255 255
-2.094932852636948 1.1340540294547425 4.720803718350569 255 255 255
1.9101357069730691 0.6974306700807422 4.914289720156885 255 255 255
2.0287549068331954 -0.20016504330822163 4.9651016982706855 255 255 255
-0.1891037779679724 -0.2838666500771667 4.566817463119615 255 255 255
-2.1789282432552426 0.9907089283201631 4.814497633597184 255 255 255
0.0350357606395071 0.14876872310375044 4.610930825401593 255 255 255
-2.1940361663653736 -0.8910380951426907 4.889570730243263 255 255 255
2.155961218456738 -0.595647267878841 4.971987755819582 255 255 255
0.28452837789801944 -1.1187281725550395 4.5826258467100045 255 255 255
1.5009378873351098 0.8813678008025749 4.901109753736507 255 255 255
0.6167615151874114 0.3834524149479769 4.465486095771388 255 255 255
1.0451609196634322 -1.381033346107684 4.998439049564509 255 255 255
-2.453523160539969 0.7110502712734306 4.805514014444617 255 255 255
-1.6581775328927633 -1.2575901486204188 4.927210089808873 255 255 255
2.0472107195479836 -0.04024335818910316 4.940435098540906 255 255 255
1.959118427526809 0.8880839118636555 4.8373351672184075 255 255 255
1.7845541064482386 0.5610658352977039 4.9195619396906585 255 255 255
1.7324759545396633 -1.4178935968313873 5.0192514799348125 255 255 255
0.9554758582889932 -0.6947235135045268 4.966590003525085 255 255 255
1.4133827149393252 -1.5097330093275054 5.009399269502887 255 255 255
-1.0011675633942858 -0.045780894422731665 4.733325974914937 255 255 255
-1.7890964154216158 -0.4045503475653374 4.901974123969445 255 255 255
0.10397087274335783 -0.24831102537396432 4.650931598598791 255 255 255
1.8544762676035091 0.049319841089205146 4.935908361533726 255 255 255
1.4423006973207435 -1.2541564865555288 4.996284181768167 255 255 255
1.3815287881423166 -1.3987289171817867 5.015655117958053 255 255 255
1.1463036792808883 -1.2852766113865277 5.004642241318676 255 255 255
-0.48167432615867756 0.1448796892418339 4.6270957076122485 255 255 255
-1.7493822882252412 0.25429530173123377 4.8537812003316 255 255 255
2.289467302210097 1.0964966363457118 4.797655141074255 255 255 255
-2.46303201296498 -0.41703442535408164 4.876141082254585 255 255 255
1.7184128598503783 -0.49674475916190847 4.967487805259826 255 255 255
1.564766839993598 -0.19730836530495924 4.958323283665446 255 255 255
-2.378910353116172 -0.9069557169585458 4.891034052108287 255 255 255
0.17909502021509083 0.029025843162807003 4.631247407592977 255 255 255
-0.537649282728292 -0.09129005851075207 4.637220949060678 255 255 255
1.4914047214816375 -1.223494344506234 5.010544296545742 255 255 255
2.018513354551648 -1.4263641196893373 5.021445720875713 255 255 255
0.9343007362774456 0.24431616820922503 4.59500760295609 255 255 255
0.19600185223321803 -1.1223340041186967 4.565566514736323 255 255 255
-2.11247307697661 0.016278043208406878 4.858720090342075 255 255 255
1.5091999659220945 -0.5844639347020426 4.966044548906208 255 255 255
2.0583528021981334 -1.4764500609029512 5.0217701820702505 255 255 255
1.8458717166179115 -1.0855766009357006 4.999177096044502 255 255 255
1.4580084419532477 -1.0959008712129688 5.001873129664207 255 255 255
1.4696377664329787 0.39533957980034945 4.924277744440242 255 255 255
-0.9234683411864759 -0.6766482324166649 4.662157470195834 255 255 255
-1.9929387781966719 -1.5096197110864669 4.951241352431505 255 255 255
-1.2992242456865881 0.10611007518454108 4.607516420187914 255 255 255
-2.071995841648268 1.1342345392910451 4.716817895319738 255 255 255
0.5511685995970109 -0.029580595964054858 4.747777955860689 255 255 255
0.781641581187538 -1.6137140291143217 5.010573862653246 255 255 255
-2.351942358330042 -1.4108688822024793 4.921643165270412 255 255 255
-0.1887564371999247 -0.5600889916387417 4.646610585557775 255 255 255
-2.1890692614936005 -1.287548052560681 4.942456444290308 255 255 255
1.4856000530893032 0.8019805726228799 4.887498180476983 255 255 255
0.5122748635975518 -0.18758242554243798 4.757485906374996 255 255 255
-0.11795642112458304 -0.3832242075179589 4.684092477724221 255 255 255
-2.495853147001303 0.1728242717395251 4.836293821447953 255 255 255
-2.3135428304749164 -1.5252088803643127 4.9354941677856425 255 255 255
-1.76484767455887 0.9975173524101015 4.811973769822284 255 255 255
2.0299113158729005 -1.4799282038788935 5.025428328652827 255 255 255
1.6766721359239576 0.6479771300768822 4.904144870944361 255 255 255
-1.9768837939729826 0.735308685130187 4.844115380404105 255 255 255
1.9832054043425453 -0.26882530949226663 4.960970899946999 255 255 255
1.3431047643892868 -0.7376758746498271 4.997959545016627 255 255 255
0.7777926702810802 -1.646837168979638 5.018684381996341 255 255 255
-1.5082712813618198 -1.3841106050137728 4.950587691133458 255 255 255
-0.15352376492681766 -0.5977235409123468 4.6392637613965135 255 255 255
1.2961089608855902 -1.5641519159076502 5.020979124694516 255 255 255
-1.8664283777947657 -1.2576110233882658 4.929512866022349 255 255 255
-2.097380213235433 0.7190810292141787 4.820263252065663 255 255 255
-1.3050007212994332 0.08808011336885264 4.662577600371674 255 255 255
-0.6125634603990266 0.7901228035353796 3.4170155093789605 255 255 255
1.4319050016121226 0.22632489975857448 4.923450183977241 255 255 255
-0.09487023052806307 -0.24440597129272507 4.609537456397487 255 255 255
1.5032094712420692 -0.02664657490915647 4.934710940273995 255 255 255
1.9363040932163682 -0.7068855737048876 4.985441022345791 255 255 255
0.9685192241919012 0.09652077201693514 4.663425908622375 255 255 255
2.002969360531544 -0.3358747201544875 4.964675096784402 255 255 255
0.555998537798692 -0.283126725704975 4.760892896751575 255 255 255
1.4864300439516749 -1.2498526795262135 5.005087232943399 255 255 255
-1.9238055551132853 -0.15404757480204398 4.86913247493818 255 255 255
-1.1215829317460124 0.4639333939154978 4.4238759666104865 255 255 255
-1.243335167366647 0.30847100012871365 4.514573957806224 255 255 255
-2.1038847758996524 0.018206273258180448 4.871640517907083 255 255 255
0.2552741358984323 -0.3909112028397509 4.65920937595044 255 255 255
-0.30409598712627783 -0.7379679103872904 4.669633086992468 255 255 255
0.8990096396775482 -1.0517976671711842 4.979085914770656 255 255 255
-1.4310930926904781 -1.0825499120868143 4.948492381206455 255 255 255
1.0616726624995625 0.07961139157685193 4.6689663297444 255 255 255
1.4018126583316919 -1.1102586355145692 4.993684025483415 255 255 255
-1.4914201531741504 -1.032564517770029 4.936237076430941 255 255 255
0.7769674972772574 -1.5471437513538082 5.007518511505364 255 255 255
-1.7768675305479442 -0.19820603994543 4.89136685242561 255 255 255
-1.6021382907042239 -1.050129417304643 4.932911231277511 255 255 255
1.1463036792808883 -1.2852766113865277 5.004642241318676 255 255 255
-0.16312336486318796 -1.2992290287109778 4.601584331122849 255 255 255
-1.16573056131562 -0.8721417407768353 4.9440258722119905 255 255 255
-1.9250817878277342 0.14405650336381068 4.856384505642982 255 255 255
-0.29683105896474726 -0.2988641644845683 4.639572068828848 255 255 255
-1.1602662389512233 0.4622666638991529 4.422806541488264 255 255 255
0.14522132590414283 0.31555926450603583 4.5228297313706225 255 255 255
1.185374585922764 -1.3945641643878888 5.003717328973407 255 255 255
-0.36937472726975873 -0.7980187572315159 4.663738255683012 255 255 255
0.8207476691304643 -0.8866033942308135 4.9735692874306245 255 255 255
0.7484085892376917 -1.438946868042381 5.005388018922393 255 255 255
2.114195598762352 0.5646845385771165 4.934403395354787 255 255 255
0.3651888980222808 0.7176717344915144 3.4439831129158014 255 255 255
2.078199410986919 0.8936403320811523 4.901823293330735 255 255 255
-0.1652613346616012 -0.26047150480367065 4.576596858451191 255 255 255
0.22505680489171603 0.05500435881308027 4.640677487703797 255 255 255
1.9545446876169685 -0.20568359192026806 4.954471175573121 255 255 255
-1.5000909748250226 -1.4698033296301407 4.954608474780578 255 255 255
-2.209756816975628 -0.38527273216498364 4.875655637305462 255 255 255
0.8206459053757641 -1.2762837936137716 4.991588217322912 255 255 255
0.48406639152566133 0.3118130422628987 4.661781552887155 255 255 255
2.0583528021981334 -1.4764500609029512 5.0217701820702505 255 255 255
0.05706222968751305 -1.12890419523403 4.584462562064968 255 255 255
0.01531112023602348 0.046084257677788676 4.556879276339498 255 255 255
1.064263823778762 -0.14202765147679602 4.6698745828709045 255 255 255
-0.6952904524142224 0.09897661583011098 4.719179487530853 255 255 255
-0.4788389011230277 0.6446554768778137 3.4271630825355666 255 255 255
-1.3587481970570268 -0.11782158555465902 4.639589141456134 255 255 255
-2.1633218309893723 0.4618837637994616 4.83694466202926 255 255 255
1.0169334187732395 -0.8666302224882496 4.979651877852893 255 255 255
-2.216542367857536 0.22956444576653573 4.842555355292543 255 255 255
-1.744460288085462 -0.8830005116434021 4.917268082825863 255 255 255
1.1244502055401113 0.45680683708187136 4.46939486810284 255 255 255
1.1397426954863197 -1.0928773263684448 4.994506771018571 255 255 255
1.3471123769457078 -0.08777519710515384 4.939928822137138 255 255 255
-0.744580532134815 -0.6086801754504245 4.763958012808167 255 255 255
-1.1866752884425222 0.30716564105943955 4.549530339547435 255 255 255
0.10397087274335783 -0.24831102537396432 4.650931598598791 255 255 255
1.2857875241557726 -1.090917215062074 5.008514264692176 255 255 255
0.4907080940708075 -0.7866662103370781 4.781620721122848 255 255 255
-0.247246789547752 -0.5604343499514319 4.6661867021335635 255 255 255
-1.1866752884425222 0.30716564105943955 4.549530339547435 255 255 255
-1.8360104033917406 -0.8678076711341873 4.9169355652610145 255 255 255
1.8646649939996962 -1.0288779183677004 5.002355702100264 255 255 255
-2.1092848542789358 0.44153946529382654 4.842247880280525 255 255 255
-0.49751667055956883 -0.27049773323091847 4.632721063826244 255 255 255
-0.9321353479530751 -1.4133784738572677 4.961975319551574 255 255 255
1.5105969095708474 -0.6092275632854809 4.983758448424601 255 255 255
-1.7723270687514123 0.2685323062239277 4.860254919886182 255 255 255
1.7147280309520234 -1.2549123885819806 5.013346527695654 255 255 255
1.7296631562816887 0.7010221598646396 4.903463385154649 255 255 255
-1.7708539298031185 -0.18584841700672128 4.87207227487877 255 255 255
-2.2412708028944444 -1.346231247657805 4.930411406455297 255 255 255
1.5333827448353627 -0.2292926905383358 4.947838041584958 255 255 255
0.9607542410065432 0.40190731607786384 4.472958635250119 255 255 255
0.5328578056081904 -0.13506667763725114 4.699771689924765 255 255 255
-0.30409598712627783 -0.7379679103872904 4.669633086992468 255 255 255
0.19600185223321803 -1.1223340041186967 4.565566514736323 255 255 255
1.7081395337155123 0.05250878946057866 4.93727721764175 255 255 255
-0.7151993539184387 -0.044943993125436635 4.740802683022968 255 255 255
-1.5170875608339407 -0.9716981412722345 4.929378318682292 255 255 255
-0.1635971865499834 -0.1820551928519688 4.656718557571809 255 255 255
1.4447083204142774 -0.2279284135009292 4.952278058222066 255 255 255
2.016796000707125 -1.092420772800625 4.998545475011778 255 255 255
1.7550551606338733 -0.40821243260575846 4.961841027116399 255 255 255
1.5140717629826832 0.08051248998800929 4.941670471185341 255 255 255
-0.16222578808351218 0.53378320717719 4.373833445787843 255 255 255
-2.3070277482861123 1.0282759810517736 4.758369668310107 255 255 255
-2.3673159855132306 -1.1748469673897384 4.910516883052217 255 255 255
-0.11923305594397943 -0.03963460047160993 4.470573029239086 255 255 255
-0.46240830825701873 -1.133008543185743 4.57509145049455 255 255 255
0.3012891527833021 -1.1466622585639912 4.574117653520641 255 255 255
1.2885851870733278 -1.527363317070825 5.020526905313026 255 255 255
1.4887774150979107 0.03361601737698761 4.943140965039773 255 255 255
1.3891775110911657 0.26314033841355255 4.92504864001964 255 255 255
-0.5072756592000762 -0.9678228808239223 4.553548826915837 255 255 255
-0.10707294432449266 0.7886090199551641 3.427715667480297 255 255 255
-1.6463877241631213 -0.3112786445035694 4.884600350713578 255 255 255
0.42643019682383276 0.59114728746097 3.4468124621060237 255 255 255
-0.18537310161463708 -0.09654912365456403 4.502647075296265 255 255 255
1.1148301123030455 0.329210004199497 4.496098037170905 255 255 255
-0.30374172429544244 0.4602745473187301 4.437096382269057 255 255 255
-0.2034266425284121 -0.34845968049561177 4.576722173798617 255 255 255
-0.20795387260068823 -0.3164564319220412 4.56795390720946 255 255 255
1.7607085905271382 -1.4487623061517152 5.017402800009773 255 255 255
1.730170950443932 -0.5703807091482374 4.9771397712078524 255 255 255
-0.8188017847771487 -0.8005286738738543 4.750465565486339 255 255 255
-1.071017851553535 -0.2530783449939642 4.72159658722346 255 255 255
-1.7551178949280681 -1.4783706066277595 4.960377169191722 255 255 255
0.6167615151874114 0.3834524149479769 4.465486095771388 255 255 255
1.7565647898818442 -1.2890281384059348 5.010386174519002 255 255 255
-1.8625408822386456 0.13225639805840095 4.873548340138067 255 255 255
1.4832575141683753 -1.8147830577642223 5.033772982307994 255 255 255
-0.379793374734133 -0.7339177799118052 4.64592611289345 255 255 255
-1.8952863991211504 -1.2937497439008732 4.9396789343499 255 255 255
1.685849665891935 -1.2848521299463136 5.016723006483602 255 255 255
0.7643408625886394 -1.752034390841832 5.010681526250832 255 255 255
1.437362101752394 0.2777268150127354 4.9197014900351235 255 255 255
-1.8952863991211504 -1.2937497439008732 4.9396789343499 255 255 255
1.5440320359134518 -0.21342696948245726 4.953444945963533 255 255 255
1.620057108187205 0.39477180985787363 4.9155687537344495 255 255 255
-1.5181155293218536 0.9676725471135786 4.361937713098404 255 255 255
-0.46720409307440547 0.05354086612053214 4.6289620243051814 255 255 255
-0.19069421423444585 -0.5747987783115485 4.651850600090221 255 255 255
1.6164727369390186 -1.2036783473577948 5.001520739482338 255 255 255
-0.4658633788747984 -1.0412565275366412 4.561084442913112 255 255 255
1.6208200341187287 0.34284543014540847 4.903677826112167 255 255 255
-2.0052960931967245 -0.7218546495209203 4.895564127929001 255 255 255
1.456941244483383 -0.2002060083273915 4.956969371516617 255 255 255
-0.4873264733214001 -1.1280885839812504 4.558565446069315 255 255 255
0.944816430244312 -1.3884422567468038 4.990499904817066 255 255 255
-1.2501457987990683 0.37582539344977406 4.42203676188722 255 255 255
-0.6973519155573044 0.30993815363936184 4.530678265355285 255 255 255
1.433767397592724 -0.9278183721515125 4.995375355415098 255 255 255
1.6235589358405214 0.32031161081701176 4.906046676813169 255 255 255
-0.7121799067536281 -0.6716257157815883 4.7687147404062165 255 255 255
-0.4979707016397822 -1.091261183545239 4.556240690096323 255 255 255
1.4457089123798035 -0.29370132343855204 4.962459888086838 255 255 255
1.7296631562816887 0.7010221598646396 4.903463385154649 255 255 255
-0.13074773077068177 1.0568598902403692 2.953960219819006 255 255 255
1.6539665097221214 0.2889047108718202 4.922060177227028 255 255 255
-0.29757562089579326 0.05110702832776896 4.559843827405886 255 255 255
-0.27742210029693004 0.6440021282291176 3.4327838997826436 255 255 255
0.7414440249953572 -1.4616969417664398 5.003361133495681 255 255 255
-1.3577589848526095 -1.206637677062101 4.943598911704925 255 255 255
0.20487980358391475 -0.38862171159984543 4.65585026606832 255 255 255
-1.36989257845915 1.0581289696141911 3.0698779310078317 255 255 255
-0.22845564428860923 -0.569406126806767 4.656696535607225 255 255 255
0.20259078587942334 0.3864668604786745 4.457662551561165 255 255 255
1.098046944485898 0.305021156750675 4.562450195218631 255 255 255
1.1814303969745588 -1.6843428269333738 5.029004575785198 255 255 255
1.4473160244794936 -0.24815614921169932 4.955542652487211 255 255 255
1.425843904049333 -0.23779387602100932 4.947601281524535 255 255 255
-2.4657690450454846 -0.4170820478748899 4.881564181758895 255 255 255
-2.525361080817804 0.4703353175655411 4.8182812193978775 255 255 255
0.25611716141913465 -1.229177830494067 4.598027545269034 255 255 255
-0.16166585732234265 -0.2710686218174284 4.584703811901855 255 255 255
-0.8185549477840688 0.8674036057976727 3.5562846634535403 255 255 255
1.506415008934692 -1.2632359715899886 5.006588059908945 255 255 255
1.2831351180181072 -1.5701851152466686 5.027553581841081 255 255 255
-0.3042564808220613 -0.4014145881784186 4.647346554724572 255 255 255
-0.33623245467447255 -0.6848415757044344 4.6619800475223 255 255 255
1.7521722239842514 -1.375182534741401 5.019802495882451 255 255 255
1.7464617564862543 -1.8110150254068647 5.0393229524708465 255 255 255
1.4394366433506853 -0.30640730853530734 4.949934399545755 255 255 255
-1.5080400796004558 -1.4142650015858702 4.949178310999566 255 255 255
2.1553251501318935 -1.1166644556250587 5.003465739906078 255 255 255
0.555998537798692 -0.283126725704975 4.760892896751575 255 255 255
-0.31869781031805283 -0.7141885550279797 4.676113507978891 255 255 255
-1.6678695674711612 -0.3076684957608499 4.888918300447477 255 255 255
-0.030608475256263482 -1.2989893581843766 4.59956497924318 255 255 255
-2.478897475582096 -0.40308326181719617 4.868330415012356 255 255 255
-2.2138845212152716 0.3370264600648466 4.832724944817635 255 255 255
-0.9571330537524638 -0.7083541093171883 4.666288706379877 255 255 255
-1.0473449147654261 -1.425590556394498 4.9542013987648055 255 255 255
0.9649194310687197 -0.5850372371178064 4.964080456016027 255 255 255
1.7201540739410757 -1.2703780477381352 5.005557299827571 255 255 255
1.7464617564862543 -1.8110150254068647 5.0393229524708465 255 255 255
-1.5640320378447654 -1.2137322221355922 4.939644014293837 255 255 255
-0.8179681979045709 -0.7757886827532886 4.745411429832564 255 255 255
-0.07951764989221151 -0.31628933324839537 4.665658642946166 255 255 255
-0.3955200228519841 0.830323982110172 3.4202143201075117 255 255 255
1.8775115710573584 0.0016809793306557998 4.9418497912360495 255 255 255
1.642659547644136 -1.235930262153171 5.0006279770928455 255 255 255
0.8811253906690537 0.3055242559074977 4.5982962394260465 255 255 255
0.5061609766148655 0.7739147340912025 3.5283281730238816 255 255 255
0.043115840585130995 0.05436756874420817 4.574048045173951 255 255 255
1.0506836588098118 0.0632271863245739 4.67128039326027 255 255 255
-0.4090990130106785 -1.081179970514003 4.566813170192927 255 255 255
0.4402032208564984 0.9593242521112489 3.3825207737083502 255 255 255
1.3141755972958997 -1.6480432790863069 5.016130657839507 255 255 255
0.07591113391463793 -0.6378199008534376 4.656441943075759 255 255 255
-0.029316128191567283 0.04862863381276471 4.532704068827145 255 255 255
1.8161456565477347 -0.0337563484897658 4.9427390113189995 255 255 255
-1.127499509815915 -0.7494272053562605 4.929161317155829 255 255 255
1.704386960922066 -0.4347574196685051 4.96015093610153 255 255 255
-0.9001421777668805 1.0804690255191733 3.3956587867719166 255 255 255
1.1484444045128628 -0.6614978236078531 4.964271594725907 255 255 255
0.9670742375353679 0.20004824918519298 4.650735485549155 255 255 255
0.3429195631087815 -0.051238031960900494 4.760957689020362 255 255 255
1.1276127598426693 -0.5457557484615869 4.957631678860823 255 255 255
1.6593079974486877 -1.2644629902288762 5.003933101465575 255 255 255
0.43887183687560155 -0.26573283210938753 4.771325302946489 255 255 255
-0.2192657102554753 -0.3280348413975076 4.568939255383359 255 255 255
-0.8190488278596076 -0.752360844311179 4.740430305220062 255 255 255
1.4401269297033765 -0.33123540291129017 4.9562691839982564 255 255 255
-1.7686195485236642 0.24576566662347432 4.845703344017563 255 255 255
1.0576546214652744 0.15217852238134416 4.658097418440582 255 255 255
1.3560253679681264 -1.0939567464291897 4.9940320520579995 255 255 255
-2.5998450511832143 -1.2624221812502707 4.9010687329939415 255 255 255
1.8882169504033581 0.9396157616490756 4.887303590064964 255 255 255
-0.14460833940006593 -0.23215544453554657 4.584379648730405 255 255 255
1.4291337968964242 0.3425542927944164 4.923660630928632 255 255 255
-0.36175432932606233 0.6436158784579269 3.4305165722770035 255 255 255
-0.6112974584385684 -0.5773683645692113 4.567237638612736 255 255 255
0.9281912993709922 0.23055930372517877 4.603552265724475 255 255 255
-0.2953318733182005 -0.4196226987574964 4.651566611520711 255 255 255
0.7155849475351462 -1.479248725126691 5.00338828003301 255 255 255
0.3538607970053392 -1.472839380782362 4.525138939034834 255 255 255
-1.8288365608256323 -1.4709185740193746 4.9571518906762195 255 255 255
-0.8248932750051563 -0.7637172553166889 4.7442367255832805 255 255 255
-1.6007834328379211 -0.20846051439123492 4.8933734236573425 255 255 255
-1.4215331414644152 -1.125774296981478 4.942241283987374 255 255 255
0.3955768680866663 -0.9416228298937019 4.774387213559984 255 255 255
-1.434279154234657 0.21851332674308083 4.580712055082471 255 255 255
0.9526725377496714 -0.5773607325083452 4.961138484746635 255 255 255
-0.014358555476631556 0.02762925724626182 4.5669135115129045 255 255 255
1.4520590570186938 0.26684034726689143 4.93597951391155 255 255 255
-1.0821530073005317 -0.45432081268928365 4.707978940987725 255 255 255
-2.0546979175060107 1.1079058517122007 4.135001527570853 255 255 255
0.5322961125406842 -0.1755577473903366 4.754031553757613 255 255 255
-0.09446082266593687 0.043819393804084665 4.511536179826924 255 255 255
-1.948109040812067 -0.889094843014957 4.912727023327383 255 255 255
2.3206849093617503 0.9849154983349048 4.865192523896781 255 255 255
-0.112182654484114 -0.5762777645428452 4.667977563515621 255 255 255
1.2589506101938097 0.11266960548900648 4.93777903610331 255 255 255
-0.5395466857968356 -1.0290621607458552 4.584269801740636 255 255 255
-0.9263306441185645 -1.4510229017445966 4.9729468178584995 255 255 255
-1.2409833414498248 1.1206974665669738 4.260737248602255 255 255 255
-1.09087083975718 0.06387489883986416 4.744865397149004 255 255 255
0.34353838144918025 -0.37102866315782296 4.777809519668535 255 255 255
-0.5438513542628831 -0.9832043187985768 4.561852239320604 255 255 255
-0.41357135173303744 0.24847093996751674 4.538680692608097 255 255 255
0.9644440251486894 0.07896112812004442 4.681025061295792 255 255 255
-1.8664283777947657 -1.2576110233882658 4.929512866022349 255 255 255
1.3317981755428778 0.12988350771097854 4.940042880226699 255 255 255
1.8882169504033581 0.9396157616490756 4.887303590064964 255 255 255
0.20487980358391475 -0.38862171159984543 4.65585026606832 255 255 255
-0.15815853986680983 -0.6073909837843569 4.645579998255566 255 255 255
-1.1493241975574588 -1.2330159920932449 4.945505960749066 255 255 255
0.657624371847647 -1.484425731038732 4.99599485867667 255 255 255
-0.23229172935730663 0.006824026091013621 4.498165180072374 255 255 255
0.9746269543039062 -0.5669945296347957 4.9646959600040885 255 255 255
-0.6721971648645625 0.9121014423871381 3.400660889842986 255 255 255
0.030269320911012376 0.009820934990791738 4.562314974680632 255 255 255
-1.3548805515442994 -0.5707184678879832 4.915569872683168 255 255 255
1.3249930829403886 0.2131867640369884 4.92560753551919 255 255 255
-0.2222071511727809 -0.3616954792367416 4.580117650121879 255 255 255
0.5543473536209881 -0.11273350071408504 4.694921257686217 255 255 255
-1.510850957802882 -1.4078924137136408 4.95585516478788 255 255 255
-0.2767217787122117 -0.315733698595225 4.641921377935361 255 255 255
-0.9395705166358957 -1.4661418030231723 4.957503209216255 255 255 255
-0.6689790403238534 -1.4656333162811346 4.495569655057627 255 255 255
2.01665890043474 -0.9332493502398622 4.992765696475473 255 255 255
2.0032189367715953 -0.22978290126465273 4.955835426131831 255 255 255
-0.2767217787122117 -0.315733698595225 4.641921377935361 255 255 255
-0.9389582597965013 -1.295023958626467 4.959850316511075 255 255 255
1.5021130425970963 -0.2229525526501764 4.951886376898881 255 255 255
-0.46463747896285046 -0.3826559415574103 4.654376993412885 255 255 255
0.6485446528356749 0.8345379380533622 3.6799184353129553 255 255 255
-2.1540542073136715 1.1000025809173652 4.045653597090284 255 255 255
-0.9458736466877472 -1.0920427828377983 4.5619007502846 255 255 255
1.1405099225613444 -0.7074192988246327 4.988351973131556 255 255 255
-1.4536156194644434 0.2738711860258152 4.4976544415290585 255 255 255
2.2411861480037505 -0.4513040566536347 4.966859778549069 255 255 255
-2.227440747619949 -0.3643958703797567 4.873812614463306 255 255 255
-0.18398571371825717 -0.5936267743672653 4.65845294549472 255 255 255
0.385995339310496 1.01677545571101 3.3888392814057795 255 255 255
-0.6825613629887849 -0.35851939363083085 4.747878897130009 255 255 255
-0.6416986041742825 0.2509837730776955 4.570460763374158 255 255 255
-0.338648880605743 0.04762880996256041 4.6107551896931405 255 255 255
1.9757494548224699 -0.22187377285299256 4.956471682956377 255 255 255
-0.8505891290220284 -0.7530129468786508 4.731871597077221 255 255 255
0.8048035696331841 -0.8950215025646306 4.978940998604545 255 255 255
0.4935285443504377 -0.7245765334871243 4.7680313062810376 255 255 255
-1.4984731872632908 -1.4374177691203969 4.958171585431337 255 255 255
-0.15852456982174765 -0.4472901150376352 4.634778043084841 255 255 255
-0.13384013474203157 -0.17010612932307376 4.66461464569464 255 255 255
-0.21418965657106584 -0.3449651084696759 4.574898830307621 255 255 255
-2.4508522980602 1.0292732591088838 4.746829890096813 255 255 255
-2.045417497138536 0.0009528824895111118 4.865575936646194 255 255 255
-2.15211240934515 0.2778201349744189 4.841848252513143 255 255 255
-0.1284686153934126 -0.042273266064583516 4.44673720223529 255 255 255
-1.0539085003603745 -0.4679039073338939 4.727681406745705 255 255 255
-0.6736602424113579 0.29358668110195585 4.5298401409231985 255 255 255
-1.510850957802882 -1.4078924137136408 4.95585516478788 255 255 255
0.4429803541047317 -1.210090859264036 4.699973524317428 255 255 255
0.10558214840654719 0.04981141318770912 4.637957400316391 255 255 255
-1.2746274543207223 -1.4548034520162727 4.97821793576773 255 255 255
-1.3149639720277526 0.40022734388949 4.414789340467746 255 255 255
1.0799255935929735 -0.03670104427584579 4.661462334415899 255 255 255
2.2417553823096887 -1.519308031270116 5.022463974454635 255 255 255
0.7780242928409898 -0.897693932611971 4.958532353030714 255 255 255
0.026604227255749246 0.07586014162434401 4.562908740572517 255 255 255
1.9639389339154274 0.6895935578547239 4.912681312388564 255 255 255
-2.4250568817144686 1.125769507345568 4.637255905311393 255 255 255
-1.0558063481695419 -1.264355751083091 4.954033145406271 255 255 255
0.6704065773004949 -1.718712662904965 5.0169834153689505 255 255 255
-0.8505891290220284 -0.7530129468786508 4.731871597077221 255 255 255
0.6053479182293142 -0.0845201187192386 4.7463981612883375 255 255 255
