ply
format ascii 1.0
element vertex 695
property float x
property float y
property float z
property uchar red
property uchar green
property uchar blue
end_header
1.9037312783899343 0.12205015014590753 4.404631221925058 255 255 255
0.6898211594812674 1.1161296912816676 4.274335302700166 255 255 255
1.4315797501020224 -1.2089111427185892 4.709698883171174 255 255 255
1.099521138994646 -0.9237381288983003 4.816173999454821 255 255 255
-0.1805675333558477 1.0636242998326033 3.6187977826920803 255 255 255
1.96102421432102 0.25458567445742886 4.370253683395591 255 255 255
1.6248969888777505 -0.034802985933230716 4.524737068060208 255 255 255
1.1378282655707606 0.5916936966076001 4.651603911902299 255 255 255
1.1917960857683931 -1.055608265194993 4.780620279929707 255 255 255
1.320171778534155 -0.7422788210206883 4.711832212417002 255 255 255
0.46293288892156653 -1.2873029386535322 5.0766779189185725 255 255 255
1.6595267885525053 0.16727290676816267 4.488061642157129 255 255 255
0.8200877509034992 -0.37016218627613323 4.85491461630267 255 255 255
1.792852609115957 0.3741461865782955 4.41893214028488 255 255 255
1.6248969888777505 -0.034802985933230716 4.524737068060208 255 255 255
1.9514907304067235 0.853267969173612 4.310975209862186 255 255 255
1.3110017886094556 -0.9366310016160784 4.730650391502163 255 255 255
1.394006089903783 -0.019924445776652575 4.614996857925029 255 255 255
1.3737486721720653 -1.227721278787793 4.731651623634771 255 255 255
1.6247846720553438 1.082385157474573 4.418003301174319 255 255 255
1.5834884701572425 1.0233732069590553 4.438703676704713 255 255 255
1.8000496087209668 0.216583733496032 4.431236003176919 255 255 255
1.1690302873549212 0.1571427787764178 4.675301709696 255 255 255
1.6185828497984815 0.1526213608367636 4.506598294183672 255 255 255
1.8573980194379511 1.1864912035269815 4.225693163041196 255 255 255
1.6326673715744802 0.14123989388006628 4.501291640283567 255 255 255
1.2243713121350155 -1.0788220722393198 4.776161186336104 255 255 255
1.570702740605177 0.15264274944311582 4.5275991798971535 255 255 255
1.7679721353728621 0.10602930162058805 4.4588718934521046 255 255 255
1.117119121172057 0.6078121080144712 4.659441444781157 255 255 255
1.4597654951805568 1.04804704465768 4.48625262356259 255 255 255
1.1974663731107806 0.9657202196733831 4.585761304349724 255 255 255
1.3875727873406392 -0.03224857436348647 4.615961615908623 255 255 255
1.673238074217118 -0.4099521623334168 4.5478573541179275 255 255 255
1.1559113551788445 -1.0468474222131352 4.799181534408451 255 255 255
-1.1036275420970822 1.110783490127172 3.8355721262906832 255 255 255
-2.740432796421601 0.3288173406763435 6.10050864539672 255 255 255
1.109672463510899 -0.9606595594696669 4.81004350150045 255 255 255
1.5310055239307627 0.26462284352787824 4.530951039644945 255 255 255
0.8252659855576251 -1.0177431358001496 4.918946986244158 255 255 255
1.5847867543313297 0.597477929585765 4.487144805197508 255 255 255
1.419387450946353 -0.02974229450734101 4.6113961574649265 255 255 255
0.4486874744459082 0.7841100428092281 4.369005605164959 255 255 255
1.307045516102615 -1.0536389943216367 4.749869470553964 255 255 255
1.176984143292827 -0.009958259261433115 4.68847856074785 255 255 255
-0.1805675333558477 1.0636242998326033 3.6187977826920803 255 255 255
1.3507772809844985 0.7368925911761184 4.555121773862663 255 255 255
1.3426206352944965 -0.2240683636392834 4.65582825414258 255 255 255
1.6164075205333963 -0.22174359028634177 4.550242078950922 255 255 255
1.347443301861021 -1.1039624062961155 4.7368307476750084 255 255 255
1.2258822019337163 -1.0940260409504743 4.774736425772921 255 255 255
1.6603814111787714 1.0220815197933713 4.405594339450524 255 255 255
1.515303722453108 -1.293028296041492 4.688156120569354 255 255 255
0.07849105731552396 1.110398707712653 3.703430410795933 255 255 255
1.2251344090381915 0.8859020631238705 4.593495732810528 255 255 255
1.6195391719597825 0.16259448618335787 4.507994685613177 255 255 255
-0.5201430667432025 0.7565570892192724 4.7084621542884335 255 255 255
1.1482657270135002 -0.9641998599895151 4.791149778352249 255 255 255
1.669821280941134 1.0790371305436084 4.400446241986198 255 255 255
-2.408511923330468 -1.3951611930972743 6.136912040333841 255 255 255
-0.4233617389442882 0.1956303559749634 4.790385589847808 255 255 255
1.2153202193100965 -1.0617260905949808 4.773804844461896 255 255 255
1.4730121563980072 -1.2291736711594328 4.701411486251188 255 255 255
1.4039254191044315 -0.39687081847989053 4.643656764240861 255 255 255
1.6759985157491257 0.3872971033358295 4.462401465214892 255 255 255
1.1584474118790924 0.28941998008805203 4.675874105674625 255 255 255
-2.3346832331705873 -0.9835359899114055 6.073727384114936 255 255 255
0.14080091930246916 -0.015392883650541991 4.906355461550152 255 255 255
-2.735138832770434 -0.3192560430735635 6.182455794896634 255 255 255
0.7386921416086183 -1.2146522396906083 4.97134625747703 255 255 255
1.8464895932685288 1.279847507462758 4.225396677816465 255 255 255
1.221762289510311 -1.1095081381452585 4.781533986139167 255 255 255
1.0973394580459412 0.7314702836982329 4.651334014968747 255 255 255
1.96102421432102 0.25458567445742886 4.370253683395591 255 255 255
0.8264874902571875 -1.0175007644846334 4.919886992863939 255 255 255
1.894080249691687 0.1454861357141663 4.4077394191007 255 255 255
1.4303531993586522 0.4443145928874321 4.550655266699553 255 255 255
1.0938658898842675 -0.9420141879866305 4.81555046986923 255 255 255
-0.1545004972224123 1.0651313063759624 3.630538153138754 255 255 255
1.0571137034491689 1.114659641482035 4.625061194873505 255 255 255
0.6777893293824884 -1.205848540427091 4.993560044014115 255 255 255
1.3628066596815105 0.27140065383228174 4.599206126535765 255 255 255
-2.812887666443968 1.038382665891859 6.027991105054533 255 255 255
0.34354187106750644 0.6136218167883876 4.4718410197967575 255 255 255
0.6400136637536192 1.125638696287079 4.2713497542078045 255 255 255
1.0700851009281076 0.644014516523739 4.667993691750858 255 255 255
1.2454555894832047 -1.2061646071227856 4.778712773918364 255 255 255
1.0864622362192022 -0.020684906536236086 4.718358802760834 255 255 255
1.3102764280910066 0.7847014724077088 4.565511231477873 255 255 255
1.657106178747628 -0.5563210701316376 4.569779324663114 255 255 255
-0.7086961975063176 1.0684844621172882 3.726750709372914 255 255 255
1.2943111534444465 -0.7401734623552493 4.719119941710618 255 255 255
1.6091913051854518 1.0763874246800846 4.42743180591965 255 255 255
1.0971860703208094 0.49603329863380147 4.670904480379166 255 255 255
1.9514907304067235 0.853267969173612 4.310975209862186 255 255 255
1.7424094586097147 -1.2999407848621174 4.609444787320784 255 255 255
1.7369736636131827 -0.22106541663690243 4.507330161471386 255 255 255
1.0908740872976126 0.7397477328291786 4.654054861710657 255 255 255
1.2857530256592982 -1.3724843591536373 4.774464968415961 255 255 255
1.1337535536245535 -1.2179068967291475 4.819403624420972 255 255 255
0.6722819833032566 -0.9293067155387212 4.966760225840474 255 255 255
-2.1369117838566556 -0.6217084377811722 5.964385667968792 255 255 255
-0.4417116500831191 0.1905540233350067 4.787918030044853 255 255 255
-0.9920272171106943 1.108930447843964 3.7958972885584235 255 255 255
1.1212316394131547 -1.045980882691802 4.8118486324855745 255 255 255
0.14461551733059302 0.558319194237545 4.55180307769373 255 255 255
0.6241628973715836 0.5478807957137987 4.373881372289766 255 255 255
1.7822148211947628 0.5773622053388066 4.404436037606198 255 255 255
1.4720731062596923 1.0608368537194697 4.483009969460701 255 255 255
1.2623495732501095 1.024928831402206 4.5631191641210425 255 255 255
1.2218100778533878 0.3416281077776887 4.636122268466044 255 255 255
1.335103825420163 0.8730334769839939 4.554706591714908 255 255 255
-0.3100069363787464 0.6388300734332005 3.5948752931984744 255 255 255
1.744656146826842 -0.39562791594166635 4.5144297933445685 255 255 255
1.2651697671822395 -1.075790465282787 4.762187128248635 255 255 255
1.7679721353728621 0.10602930162058805 4.4588718934521046 255 255 255
1.099521138994646 -0.9237381288983003 4.816173999454821 255 255 255
1.2111290842479387 0.3619283346987321 4.644246664921949 255 255 255
0.9458580213836183 -1.0998816705162862 4.885783475498699 255 255 255
-1.3288596192675564 -1.5944261337985843 5.776060943442028 255 255 255
1.079820734599973 0.4967141267731484 4.679837739821763 255 255 255
1.3102764280910066 0.7847014724077088 4.565511231477873 255 255 255
1.746827122152725 -0.9498332069343333 4.5605738706672705 255 255 255
1.7881281336296604 1.0556295243916576 4.367954521507351 255 255 255
1.389565194542479 1.0574615077452483 4.511586570805589 255 255 255
1.2260339063506625 -1.510757963204903 4.818584024644516 255 255 255
1.9031985260808622 1.1028667052327148 4.300838781748778 255 255 255
-0.4233617389442882 0.1956303559749634 4.790385589847808 255 255 255
1.5271753700971409 -1.5137379779101758 4.701632105269226 255 255 255
1.221042464301611 -0.9156670839060985 4.765191067161368 255 255 255
1.7384780706924647 -0.7378162940563759 4.553397210200746 255 255 255
0.4349419224995127 -1.1744341362853166 5.077961676660449 255 255 255
1.87970094760028 0.23142628887092215 4.406283804961944 255 255 255
1.201101304296722 0.7725847448384653 4.604100332716723 255 255 255
0.6066255735597822 -0.710858292861213 4.983065852729646 255 255 255
1.4047544688877227 1.0748660042511087 4.50127218658509 255 255 255
1.4254711644422553 0.8111538957196507 4.51762504941117 255 255 255
1.5222448590052513 0.748937966808698 4.4930474323522125 255 255 255
1.2986367799339555 0.1405170301671444 4.635662794041424 255 255 255
1.1228758254494466 -0.9350019124914465 4.7992803718263 255 255 255
1.1154856902773571 0.577702983393004 4.656512393184448 255 255 255
-2.721532714640631 -1.5483999801493304 6.268194380875426 255 255 255
0.7801374013759474 -1.4854305634335416 4.978420253254778 255 255 255
0.7102791301640042 -1.2049837008885125 4.977934380530891 255 255 255
-0.21391679382355266 0.7086815362611241 3.626830101997188 255 255 255
1.394006089903783 -0.019924445776652575 4.614996857925029 255 255 255
1.5700791900024436 0.2641939784450428 4.5176631537066365 255 255 255
1.6250343090702526 -0.5554322508420408 4.576916419179936 255 255 255
-2.4968228682801157 -1.115952171874185 6.146121824780434 255 255 255
0.3547058206445872 0.6303601603973678 4.4674918967825965 255 255 255
1.8027148842194591 -0.9330245875214339 4.546061471859324 255 255 255
-2.2223208330142588 0.4864385786912527 5.8862950905998055 255 255 255
1.8274570409730049 1.0410613956422912 4.347203215490766 255 255 255
-0.6061936870739476 1.0666383205865404 3.6902585175463427 255 255 255
1.1577101885823204 -0.9321513457429758 4.792730137031936 255 255 255
0.448744056186515 0.11316121012661831 4.782251321494818 255 255 255
0.6742340987439883 -1.3476256936486863 5.0012900753603216 255 255 255
1.4077768909771673 0.1282397688118205 4.586831934343565 255 255 255
1.5341148926678585 0.18991232230758767 4.535277900550625 255 255 255
1.8201337713069865 1.2161010628422966 4.2389345421095435 255 255 255
1.6148021333624385 -1.310883230210596 4.650598179237147 255 255 255
0.6041892197092227 -1.2799084422748082 5.030379256945806 255 255 255
1.5890264833265326 1.0761492264609154 4.43677634190529 255 255 255
1.541784993472582 0.2625386968771133 4.520851561594678 255 255 255
1.6050132920138993 -0.9209782377128175 4.624695688042381 255 255 255
1.4277318973379087 -1.3070628834711682 4.723315964210193 255 255 255
0.7118526537532923 -1.296191413885825 4.988377700315293 255 255 255
1.4901829480945603 -1.3393048701930361 4.694924489285722 255 255 255
1.050638559699579 -1.2110165506481114 4.855718985321546 255 255 255
1.3458127685052377 -0.7396112785718137 4.697368741816907 255 255 255
-2.793300199268821 1.1124363950640481 6.03420153927972 255 255 255
0.4924973056565132 0.9618950606465387 4.36828816976885 255 255 255
1.6665470127354047 -0.7829700440403807 4.57552918865858 255 255 255
0.6066255735597822 -0.710858292861213 4.983065852729646 255 255 255
1.711278479690651 0.733863773720619 4.417640603699764 255 255 255
1.1755207895407767 0.27328357575032236 4.671140530307055 255 255 255
-2.310435362904304 -0.13394654013307222 5.986618225209598 255 255 255
1.6148021333624385 -1.310883230210596 4.650598179237147 255 255 255
1.3079488569635913 -1.040766478799218 4.747390732654178 255 255 255
1.2056387075909802 -1.227230379345968 4.801999726400046 255 255 255
1.6556099399416648 0.5907115380995469 4.461164306189671 255 255 255
1.1147833589081062 0.928369555492366 4.6278068604425195 255 255 255
1.947559478119533 -0.276892739421271 4.424313982467619 255 255 255
1.6195391719597825 0.16259448618335787 4.507994685613177 255 255 255
-2.4196791332930427 -1.6958322509792805 6.166154841114685 255 255 255
1.1918939080675417 -1.1093241821718416 4.797464069432351 255 255 255
1.3895141366631134 -0.22364273358390493 4.640608726537914 255 255 255
1.3227954514327533 0.14545784260603517 4.6307864858351255 255 255 255
1.769975421503028 1.057526188829341 4.3730901568732845 255 255 255
0.797557240180178 -0.3817928903800886 4.8637657043530576 255 255 255
1.9871500202666699 1.1608455462764407 4.186917669980214 255 255 255
1.2260339063506625 -1.510757963204903 4.818584024644516 255 255 255
1.140144166125228 0.6061142009993392 4.651238942978027 255 255 255
1.1399876598545968 -0.5750919507587132 4.772114667966513 255 255 255
-0.46597290726185986 0.5271676414233721 4.776326932321504 255 255 255
1.1951015425408942 -0.188373778689092 4.707613222141533 255 255 255
1.1345676789122618 1.084891298480213 4.602328209240053 255 255 255
1.6689507284184495 -0.2317423104001783 4.533060061320556 255 255 255
-0.05397799217876113 1.0698213243078132 3.6789844701356627 255 255 255
0.9077128609271167 -1.0451662988355188 4.889799433299386 255 255 255
-2.7478923325174835 0.9534801796626748 6.037050808414645 255 255 255
-2.728256054864387 -1.1681392995523898 6.2469193646738255 255 255 255
1.6657786376668953 -0.3898130924604591 4.542254990039158 255 255 255
1.3671698714697085 -1.1329665225725936 4.72748778644261 255 255 255
-2.5557690565568336 -0.9925166394415222 6.160683063233407 255 255 255
1.8513002955046858 1.0509438669173976 4.3436123000765035 255 255 255
1.2583175598066498 0.3540119710717584 4.6252739297876815 255 255 255
1.880932204301167 1.176079074427769 4.216798638326256 255 255 255
1.0448212018965002 -0.024560666402617313 4.739760228934297 255 255 255
0.6552247982495064 -1.4712415067462528 5.026150120773215 255 255 255
0.6835698885780827 0.30296242183683025 4.559501957646663 255 255 255
-2.3353751636286497 -1.1391818757821859 6.087931778957225 255 255 255
-0.6508480155923564 0.43810744181051786 4.974509889963952 255 255 255
1.8205934578149359 -1.1267620919038581 4.550051765778726 255 255 255
-2.1102402719941122 -0.6233473812011581 5.96387883426655 255 255 255
1.4388717223629583 -1.2961196011072669 4.7160052300297135 255 255 255
1.8625380700732423 0.24740348489681524 4.408207899617177 255 255 255
1.2549453334654441 -1.1060048514093044 4.771314022257732 255 255 255
0.12716056465258135 0.6641376708010639 4.54335636812272 255 255 255
-2.162123069758081 -1.5583968122601615 6.074522052998904 255 255 255
1.7384780706924647 -0.7378162940563759 4.553397210200746 255 255 255
-1.387251906984767 0.5886945260645946 5.107624722693302 255 255 255
1.3318562235446831 0.7015438773482415 4.568816595983298 255 255 255
1.7546594757822045 -1.0299583488024187 4.563516757577312 255 255 255
1.3426811259611382 0.755834675462861 4.555550055220014 255 255 255
-0.32469455871879044 0.5615941088424643 4.730544494033792 255 255 255
1.0439318840636138 0.0035183245854198586 4.742065366326968 255 255 255
0.5259735462965357 -1.2676410554890454 5.054059452944192 255 255 255
1.6657786376668953 -0.3898130924604591 4.542254990039158 255 255 255
-0.5363098002951576 0.9166054168545398 3.700204076318152 255 255 255
1.7584349044728345 -1.4912919252833248 4.611821944907563 255 255 255
-0.1782367790784386 0.4345786348228295 4.778413219368718 255 255 255
-2.7231197313445863 -1.6844665806447163 6.285761085883219 255 255 255
0.7643886705811495 -0.8947069011688835 4.932832066847898 255 255 255
1.65235457976129 -0.04046503982056153 4.510523912086819 255 255 255
0.4951284041083324 -1.1697201304979292 5.052765915355919 255 255 255
1.0708084907515398 -1.21457996658693 4.838228207197811 255 255 255
-1.570245723789116 -1.5694675016768362 5.86148604996855 255 255 255
1.0854870122722944 0.4883996803915644 4.676385144519879 255 255 255
1.3671698714697085 -1.1329665225725936 4.72748778644261 255 255 255
1.5733945177413253 0.23482940966332821 4.51582702433798 255 255 255
0.12716056465258135 0.6641376708010639 4.54335636812272 255 255 255
1.3708178762736603 0.1453483747297332 4.611003496392654 255 255 255
0.8778589746486497 -1.2006333671576155 4.912042281731375 255 255 255
-0.6508480155923564 0.43810744181051786 4.974509889963952 255 255 255
-1.8676238763488167 -1.5782058611942567 5.967849993270358 255 255 255
1.1678759201989233 -1.2187733545138757 4.813490393590875 255 255 255
1.9638443110135668 -1.1443371411794285 4.504792954794427 255 255 255
0.3230591134954634 -0.09552576391667239 4.844077112609589 255 255 255
1.8607525828894365 0.0952606207680351 4.421194256352249 255 255 255
1.733461558169722 0.41771556049119923 4.4395435302488355 255 255 255
0.017680543397586384 0.6706980708465963 4.587856215252458 255 255 255
0.9565423514781181 0.29720135150165833 4.749385688419542 255 255 255
1.4777884974550397 1.1852669047669733 4.375705365535748 255 255 255
1.1205553812535192 0.2730425508640296 4.6938121785595275 255 255 255
1.3034674038462033 0.7944827623439001 4.563189851837507 255 255 255
0.8396862964296397 -0.6780738001746596 4.883410604737035 255 255 255
-2.5112890206121428 -0.9901116595201113 6.144381134395702 255 255 255
1.5168255468275247 -1.3432730631715069 4.685401679504066 255 255 255
0.6041892197092227 -1.2799084422748082 5.030379256945806 255 255 255
1.1082704720254986 -0.21448946951880973 4.751570201145055 255 255 255
1.296746115924001 -0.7253868108456966 4.719846209465264 255 255 255
0.02244401062689242 0.547829524809009 4.599111590180592 255 255 255
1.16963979246142 1.0603925785824013 4.602062088769795 255 255 255
1.4659432589367907 -0.7526677126102467 4.660097687360119 255 255 255
0.6983420907962025 0.6037788028856123 4.340639118589905 255 255 255
-2.5112890206121428 -0.9901116595201113 6.144381134395702 255 255 255
0.22836874541088234 0.5607314291480616 4.5192469143005125 255 255 255
1.4212669816325385 -1.2920121201050094 4.724963355003527 255 255 255
-2.479764920647178 -1.1534702547771538 6.145010749376486 255 255 255
1.4528574156165734 0.12861311676827766 4.581034601506685 255 255 255
1.9332063654828662 1.110554560620286 4.270380177662365 255 255 255
1.0495295505890994 -0.3879831755275138 4.778428006380917 255 255 255
0.9029604400502749 -1.4836087122230681 4.93724653491988 255 255 255
-2.399062792169246 -1.6842554261823428 6.165912377440911 255 255 255
1.4713084136453394 -1.2886983160736798 4.699940315497287 255 255 255
0.641177602421728 -1.0835182907713612 4.992203189201317 255 255 255
0.983006163397297 -1.2100979132871257 4.875799594208599 255 255 255
1.5617595721035078 0.47355699689023206 4.496064988836141 255 255 255
1.4639199360966189 -0.04513267460306554 4.5957963283975705 255 255 255
-2.147776696970613 -0.6386798390421489 5.9660176216068574 255 255 255
0.852102159928741 -0.8585356983482244 4.888949054806736 255 255 255
-0.26755608868930325 -1.345518365393734 4.926576635054932 255 255 255
-0.5891126400658884 0.7606737331539902 4.733410256067699 255 255 255
-0.341558876959695 0.6474672597421247 4.721120542222684 255 255 255
1.7786951868073662 0.11669192627420716 4.447151132319543 255 255 255
1.324131660534288 0.3279853044680342 4.6034281068057705 255 255 255
1.7129310932540753 0.4238751687948981 4.4505714393068105 255 255 255
-1.6032316280032446 -1.5694618573690071 5.866445893625639 255 255 255
1.4888237253847407 -0.4032161088624014 4.618104603698652 255 255 255
-0.5321025359064977 -0.12742403687599796 5.029919911542272 255 255 255
-1.7489318072701032 -1.5782879056891033 5.9302768242228465 255 255 255
1.2611604648040995 1.048710306786793 4.5664686298558 255 255 255
1.5335248722341424 0.38114959423194295 4.514290645746912 255 255 255
-0.532461318408882 -0.5060800388705772 5.086148707713411 255 255 255
1.8321733688102786 0.7159365134184739 4.377196422144307 255 255 255
1.3324563138713263 1.1125985875412285 4.520572247371187 255 255 255
1.3097181939338138 -0.5584508125425398 4.707251718910961 255 255 255
-2.7594275803252764 1.0310063536286505 6.036418259016267 255 255 255
1.587743497139463 0.4262257900396616 4.501994965361538 255 255 255
0.8778589746486497 -1.2006333671576155 4.912042281731375 255 255 255
1.6841382633192712 -1.3132808556145426 4.628915481631113 255 255 255
1.1726418169322639 -1.052393271868854 4.792731849063026 255 255 255
-1.3193422898271336 -0.647173113560263 5.685390276494644 255 255 255
-0.23232742101849646 -1.3512973286437409 4.895083040399225 255 255 255
-1.7382518279973047 -0.9430470286238539 5.85400002560265 255 255 255
1.779060052388982 0.1493290329594642 4.45287153947976 255 255 255
-1.2582411570147514 1.114217772810712 3.8930415572965074 255 255 255
0.3729656974811334 0.6560569931288015 4.453906615679521 255 255 255
0.7861786864923758 0.5270348377011767 4.314386679513786 255 255 255
-0.8609791768260369 0.7694499816120663 4.833500620451614 255 255 255
1.6889372778098897 -0.8997766454701168 4.582721404736197 255 255 255
-2.2236922121328826 0.5938824562127925 5.87544127335876 255 255 255
1.385948465939849 -1.033756816811391 4.710190975561377 255 255 255
1.4189776391212223 -1.0899560453857202 4.69815872094585 255 255 255
0.03572044076502862 1.0731232855382753 3.7191141667878 255 255 255
1.76869217236354 1.0245312829759639 4.362948806366939 255 255 255
0.9565423514781181 0.29720135150165833 4.749385688419542 255 255 255
0.7644550427103758 0.6019330129344936 4.318177878337267 255 255 255
1.2534175782661325 1.1167499882482208 4.546988049707761 255 255 255
1.0471799010756686 0.585508662074073 4.6737353453672315 255 255 255
1.502990584501042 0.17240386002157068 4.557454522642538 255 255 255
-1.4098219632935902 -0.9944345344361047 5.742890287794555 255 255 255
-0.3483541240835744 0.6347895411800135 3.601878254926991 255 255 255
0.5695988655007217 -1.4713655590623282 5.058380236543017 255 255 255
1.221042464301611 -0.9156670839060985 4.765191067161368 255 255 255
1.2857530256592982 -1.3724843591536373 4.774464968415961 255 255 255
1.5467822967291747 0.44026596399434353 4.506162981553347 255 255 255
1.863056536627053 1.0062425902287055 4.334565394929899 255 255 255
-0.4074356968281942 0.7531471620379747 4.672181419839187 255 255 255
-0.07917757883273412 0.32483425624954215 4.833409217114804 255 255 255
-1.6662061747070858 -0.9822249171746961 5.832263576431436 255 255 255
1.3852359312905964 -0.7417224203341891 4.68550381327618 255 255 255
1.0820876842780722 0.2907644531256696 4.709998793632062 255 255 255
1.8849191675947892 0.5961549299835996 4.366857018029176 255 255 255
1.6458209958758534 0.7210047262375866 4.444820619907184 255 255 255
0.6447212192605272 -0.5381119639741448 4.937077731413676 255 255 255
1.4212756169368095 0.5904185750185722 4.548410214017145 255 255 255
-2.1719870332741107 -1.5436574518426869 6.076099104861376 255 255 255
1.5200660140689375 -0.9229578790736482 4.645897158983745 255 255 255
1.324131660534288 0.3279853044680342 4.6034281068057705 255 255 255
0.4989793670478844 0.5298970615264418 4.418815386034874 255 255 255
0.95529529875655 -1.062621325133178 4.867481373351078 255 255 255
-2.285002028641015 0.4406261937297363 5.914263449759342 255 255 255
1.523903989511351 0.1936474770940188 4.541452032165893 255 255 255
1.4325540150873022 0.8687249288227316 4.514394911211247 255 255 255
1.0377983725542583 1.109495677334566 4.6333476752378155 255 255 255
-2.3346832331705873 -0.9835359899114055 6.073727384114936 255 255 255
-2.7934206153815317 1.2388554916819332 5.997833887425022 255 255 255
1.3572602552644175 -0.03668996564839748 4.644011983513769 255 255 255
1.1206759221707934 0.4890415817173339 4.667966672534077 255 255 255
0.8567944834900558 -0.9402837037929245 4.899050956801868 255 255 255
0.743083857946268 0.7509120440632239 4.256526151222853 255 255 255
-2.2218571008330876 -0.7820883714683187 6.011014766284244 255 255 255
1.7606030549999592 1.0825462672558859 4.368389727559519 255 255 255
0.3230591134954634 -0.09552576391667239 4.844077112609589 255 255 255
1.4846985522640828 -0.5557546462725889 4.629155074776587 255 255 255
1.9263838324468445 -0.055357765415036425 4.413113815024663 255 255 255
-0.8609791768260369 0.7694499816120663 4.833500620451614 255 255 255
1.2089539034270897 1.083792151258334 4.585564310952646 255 255 255
-0.33288479292320033 1.0916257939335077 3.554088945284978 255 255 255
-2.653251334983658 0.29543221174136813 6.062706570066609 255 255 255
1.3023341463833933 -1.1105983508070911 4.756007409400761 255 255 255
1.552896858461057 0.2056479941531907 4.524815919061709 255 255 255
-0.27108892408798335 0.7478525725812525 4.616268197615773 255 255 255
-1.6213930378106352 0.5752294315017183 5.189484357028775 255 255 255
1.6083489783344471 -1.3475455521349171 4.654283088631474 255 255 255
1.1600860904621058 -1.1990892515149567 4.817219362879268 255 255 255
1.3706142773648788 0.7356936350880993 4.551284092381922 255 255 255
1.5511784394444577 1.079472378787812 4.446885302836874 255 255 255
0.8956351772774498 -0.6935217508882909 4.868605057663763 255 255 255
1.0700851009281076 0.644014516523739 4.667993691750858 255 255 255
0.5259735462965357 -1.2676410554890454 5.054059452944192 255 255 255
1.8142818323736276 1.3023577015837797 4.239002020292437 255 255 255
1.1750938885675788 -0.562073214973206 4.761114871587628 255 255 255
-0.4003321630551767 -0.03331306268721321 4.914754150621886 255 255 255
-2.1728642725788725 -0.6083209185184488 5.9820459370064185 255 255 255
0.13450585270023743 0.5461433142071215 4.557576001602602 255 255 255
1.3097181939338138 -0.5584508125425398 4.707251718910961 255 255 255
1.3458127685052377 -0.7396112785718137 4.697368741816907 255 255 255
-2.471092930226812 -0.6218454554102609 6.096031372125392 255 255 255
1.0865278956655093 0.14750664965538612 4.7139209560610755 255 255 255
0.2420802770514713 0.23184208629675257 4.835587935589531 255 255 255
1.2771631028941175 1.1066209539528573 4.5399792143504545 255 255 255
1.2420613784304788 -0.2329519032531308 4.703861511654567 255 255 255
-0.48790301715263845 0.5613993460248474 4.77876661975992 255 255 255
0.7107904089703034 0.6179849838030474 4.337899524717096 255 255 255
1.3991316562162843 -1.0487704970369132 4.713630377837318 255 255 255
1.147643525495781 -0.9038857373226007 4.7913506681274125 255 255 255
1.2833569703904606 -0.03090792665552972 4.657257255480002 255 255 255
1.2771631028941175 1.1066209539528573 4.5399792143504545 255 255 255
1.2165405039520605 -1.1614064375108226 4.785516545327615 255 255 255
-1.0339993665955654 0.6982557568174615 4.974607370949573 255 255 255
1.3952590040483384 -0.38477405740915593 4.646850797014366 255 255 255
0.5079003868633032 0.6167682380731578 4.411577585494488 255 255 255
-0.28751768201118555 -0.5980730690119228 4.994688913492206 255 255 255
-1.499538109146427 -1.0338832196954748 5.785176977325013 255 255 255
-0.4957947326795667 -0.5547237685666574 5.068068869361436 255 255 255
1.3963506881801173 0.8157354784103594 4.525540739694031 255 255 255
-1.7423058721178188 0.22215929595462428 5.732105953886672 255 255 255
1.2308963025422266 0.5935538884823385 4.623334655784021 255 255 255
-2.170549815772808 -0.0508109914649646 5.932148476241675 255 255 255
1.2056387075909802 -1.227230379345968 4.801999726400046 255 255 255
-0.2739495090625449 0.5394518899282738 4.706656043500221 255 255 255
1.506664910496519 -1.1941630727076251 4.685049438314518 255 255 255
1.2936263094626619 -1.4911925483604629 4.795303166840434 255 255 255
1.7608295394270443 -1.001695230958142 4.559317260210471 255 255 255
-0.8798672429984165 1.0728450004286316 3.789859401536518 255 255 255
-1.0770840770872128 -0.7123362786971232 5.303039660918952 255 255 255
1.3963506881801173 0.8157354784103594 4.525540739694031 255 255 255
1.6426622641877633 0.7545287660035072 4.4477561391936975 255 255 255
-2.405357737416077 -0.623371848637702 6.062937333055009 255 255 255
1.1206759221707934 0.4890415817173339 4.667966672534077 255 255 255
-0.057415909788978876 0.7916676072710565 3.7208978230128147 255 255 255
0.8931866498346719 -0.7080552834425625 4.866709042883828 255 255 255
1.2460982854877447 1.0201175272258611 4.56723606103324 255 255 255
0.2624311862737718 0.25114943823900665 4.834330753523259 255 255 255
-1.4028748205171562 -0.6207849193808321 5.703857229489451 255 255 255
1.6458209958758534 0.7210047262375866 4.444820619907184 255 255 255
-0.341558876959695 0.6474672597421247 4.721120542222684 255 255 255
1.679083946248979 0.41148165841216316 4.471426846078037 255 255 255
1.4633641623965652 0.3968513333617489 4.535897251451958 255 255 255
1.4392505876301105 -0.3786508919056179 4.631362845588954 255 255 255
1.783954097712933 1.044634375910824 4.358989190166876 255 255 255
-1.9490251965973395 -0.3174090793549012 5.8670346460297536 255 255 255
1.5965443092968965 0.48513768262774 4.483517966683886 255 255 255
0.2292406602684436 -0.0940900369300253 4.877253218336138 255 255 255
-0.7163764901319767 -0.36944428388407236 5.032585190873142 255 255 255
1.0853375240610592 0.8788444339000455 4.644489738193728 255 255 255
1.9138057627366447 1.2129318650649674 4.2053655322868995 255 255 255
-2.157350281330864 -0.79973421335562 5.996946862377802 255 255 255
1.1699391197809834 -1.486170146514235 4.833665386405146 255 255 255
1.5945921803762553 0.2640491573636763 4.508789694924219 255 255 255
1.4100855741348013 -0.37993648895398335 4.648565293346563 255 255 255
-0.4211718072821414 -1.0747474776662553 4.99239587438504 255 255 255
1.082158556071691 0.6075909138613467 4.671465234784097 255 255 255
-1.943883583404253 -1.5788013247532036 5.997478765990722 255 255 255
0.12883357417626887 0.6431017840768266 4.543391662897677 255 255 255
0.32380303484950385 -0.18404959756824005 4.852839637721243 255 255 255
1.060132164250923 -1.5208953108068453 4.875873400285191 255 255 255
-2.0560697144977294 -0.14340709998982074 5.901769668066151 255 255 255
1.7267960593974057 -0.19998389814645098 4.511091370583794 255 255 255
1.6099594405127653 0.7266343808360488 4.460914676007457 255 255 255
1.299187390426868 0.7574422065760354 4.574756693817183 255 255 255
1.9380447565212735 0.3723425386632445 4.362638279975065 255 255 255
-2.755272534959699 -0.2809394222381133 6.159914352874264 255 255 255
-0.18498468212919045 0.5636100220886429 4.673260090340849 255 255 255
-0.4307053492664028 0.5336056860294337 4.757222577551409 255 255 255
-1.0000300078052904 -1.5916917437744886 5.650640925168308 255 255 255
-1.398725200216323 -1.0153706602738064 5.738233463044988 255 255 255
0.5658507764671363 1.062559671626555 4.331032521959547 255 255 255
-0.5743410744215005 0.8780061483802278 3.7144840362714704 255 255 255
-2.1435267424398554 -0.6041713514437925 5.964812772330535 255 255 255
-1.324677297209881 0.5698797864049071 5.087704646748099 255 255 255
-0.5323171866514458 -0.09718698669243432 5.02796397318148 255 255 255
1.0853375240610592 0.8788444339000455 4.644489738193728 255 255 255
1.4304663775118487 -0.9163417245397167 4.688800482656302 255 255 255
1.3709959061229098 -1.1797138165559378 4.731704089008871 255 255 255
-1.1644112256980954 0.15871006556571296 5.357283133565793 255 255 255
1.15810311623965 -0.2226314137300418 4.724201031905866 255 255 255
-0.6572987460099338 0.6567086780840001 4.836968602620047 255 255 255
-2.0975919770062323 0.0723984496213872 5.89091742000966 255 255 255
-0.5190803815364162 -0.5314882330532256 5.079900831535999 255 255 255
0.8707078495710436 -0.38417025257734994 4.839402627973048 255 255 255
-1.956452641657275 -1.392905878995864 5.979547094431072 255 255 255
-0.8798672429984165 1.0728450004286316 3.789859401536518 255 255 255
-1.686220635639029 -1.0057645890345415 5.841066815683775 255 255 255
-0.15571427802356078 0.0952483718073238 4.88126410708639 255 255 255
-2.653251334983658 0.29543221174136813 6.062706570066609 255 255 255
1.318320191334318 0.8305528380714662 4.559051773290523 255 255 255
1.412363046334077 -0.735104574630333 4.671010299063334 255 255 255
-2.0560697144977294 -0.14340709998982074 5.901769668066151 255 255 255
1.0566464890865774 -0.7129894301204436 4.808393812221144 255 255 255
1.6841382633192712 -1.3132808556145426 4.628915481631113 255 255 255
1.2861652449429648 -0.4154499854763399 4.69982941893381 255 255 255
1.2861652449429648 -0.4154499854763399 4.69982941893381 255 255 255
-2.0281225496665956 -0.13919810541610886 5.886791797268263 255 255 255
1.2091830071204064 -1.3671235003390378 4.8053684040193 255 255 255
1.4228413202135584 -1.1283275235366668 4.704696078744231 255 255 255
1.61777127898251 -0.7361281464015308 4.601647639280154 255 255 255
0.6062325209254429 0.9233203947097985 4.330073201853495 255 255 255
0.10450475727764764 0.6372317812723228 4.5554799213378105 255 255 255
1.65235457976129 -0.04046503982056153 4.510523912086819 255 255 255
1.0988086639141337 0.6485915940301651 4.656448902242483 255 255 255
1.3209198970514249 0.2712749391583296 4.621923236534245 255 255 255
-0.46937559987472344 -1.0776752639066904 5.004968991342884 255 255 255
1.9461159830542483 0.09863651633202904 4.386537895973267 255 255 255
1.413471685499338 -0.3602202162631147 4.637273138923249 255 255 255
-1.9260521939661186 -0.4690792069088354 5.8844078178332095 255 255 255
-0.38871098374323126 1.1083665640001699 3.567386385501237 255 255 255
1.4935096842631854 -0.07049279437922817 4.583216805017889 255 255 255
-2.758242581367934 0.8455927964891455 6.048859243696752 255 255 255
1.3786832318596662 -0.9177519203885965 4.719295447406566 255 255 255
1.3770768502722306 0.5840111097939922 4.568007701169557 255 255 255
1.5626185890937638 -0.4055448000912443 4.592608315469764 255 255 255
-1.9337642299023137 -0.4876447882314892 5.899386151709115 255 255 255
1.6669470474143138 -1.313368543407479 4.636319348322763 255 255 255
0.7251174535196976 0.5320496461393571 4.345003748605787 255 255 255
-1.8826402820185848 -0.3203194455209961 5.855403658174638 255 255 255
1.6083489783344471 -1.3475455521349171 4.654283088631474 255 255 255
1.0905637745986159 0.27904292753864063 4.706691968313185 255 255 255
-1.8036608709883641 -0.6198848750129379 5.852421165312839 255 255 255
1.116739845005505 -0.015825998337202076 4.720946752818453 255 255 255
1.4002643743900556 1.023848223976132 4.500438486243839 255 255 255
0.8528046882017895 -1.194855624289241 4.9248096861298425 255 255 255
1.593050816473134 -0.7522023639393975 4.612724582370666 255 255 255
-1.2878950130616635 -1.5710891073360003 5.752230717309846 255 255 255
-1.9490251965973395 -0.3174090793549012 5.8670346460297536 255 255 255
-0.4161132864658553 -0.5940810609179252 5.039507160349366 255 255 255
-2.5108494221537963 -1.3813247189806834 6.176710936660266 255 255 255
1.7217478269875277 1.0708590549008363 4.388439171955731 255 255 255
-2.0556126583596774 -1.2241697187003822 5.997495944839781 255 255 255
1.754814868537976 1.0994169090728212 4.364928463130237 255 255 255
1.1354107640269129 0.12002522553775971 4.698908443339406 255 255 255
0.7564997308706236 1.0167965468064926 4.263595721316399 255 255 255
0.14252397585935944 0.6340178600969434 4.548414313194211 255 255 255
1.2207137141694886 -0.7222712811747805 4.7470271768200725 255 255 255
-0.2864510666624623 1.0934201839646793 3.5362771023877384 255 255 255
-2.250296967181191 -0.05322142388008259 5.952765750715219 255 255 255
-2.2066659483061364 -0.7950969605490167 6.013887754690514 255 255 255
-2.163189887854692 0.5336575839592111 5.863626489357143 255 255 255
-1.7051557382755425 -0.3159823603794256 5.776934813079212 255 255 255
-1.0523306778649075 0.6505352643370472 3.8588745013457433 255 255 255
1.7232872429444568 0.4604237960751025 4.43912126992042 255 255 255
0.14252397585935944 0.6340178600969434 4.548414313194211 255 255 255
-1.0362098208883441 -0.054972020323221966 5.339209467752738 255 255 255
-2.107684904560173 -0.30309894738927445 5.927843333786444 255 255 255
1.2088204318833482 -1.4761053356157083 4.822258174688575 255 255 255
1.8110120886665866 1.1907089638084667 4.243210863283012 255 255 255
-1.6662061747070858 -0.9822249171746961 5.832263576431436 255 255 255
1.5104076069637502 -1.3064216218642883 4.6899941932253535 255 255 255
-1.2973178489261428 -0.6436281140567809 5.675448732387708 255 255 255
1.3421446320392203 -1.3324168474874638 4.756181883885163 255 255 255
1.1790938583160766 -1.1936277848664183 4.81485988381373 255 255 255
1.1447793062962215 0.7196135532890431 4.636623831048503 255 255 255
0.9705396498759711 0.16108722482613108 4.757891360110574 255 255 255
-0.6456288269560145 -0.9441918476183677 5.019716429160627 255 255 255
0.569821996370933 0.8526536821636688 4.349004200315713 255 255 255
-2.3844315497754964 -1.6934431115179012 6.151658882488132 255 255 255
0.49227290175463745 -1.2902564889439396 5.077398217124088 255 255 255
1.1816659852924816 1.0715214007395808 4.5958047442459025 255 255 255
-0.31605481667683205 1.0680931902977324 3.5542776946948265 255 255 255
1.4530859892491397 -0.41002734059110435 4.629183517515213 255 255 255
1.2420613784304788 -0.2329519032531308 4.703861511654567 255 255 255
-0.05014627759654955 0.16306013095662814 4.844261628506596 255 255 255
-0.11248693076197414 0.10419397870964879 4.870585877317118 255 255 255
-0.3306124967876017 0.679110387829382 4.716832823419108 255 255 255
1.1904998767512003 -0.7096373175812062 4.7568697510733475 255 255 255
0.9453284862563456 -0.706927656393463 4.853971414846695 255 255 255
0.7944117159594609 -1.4039394192299435 4.966654077715944 255 255 255
1.5890854491845974 -0.025923858633755004 4.551729072156048 255 255 255
1.5238882913511413 -1.2777069980987095 4.681940487574277 255 255 255
-0.00023253615714034445 -0.38838826105679647 4.7765365141537295 255 255 255
0.7944117159594609 -1.4039394192299435 4.966654077715944 255 255 255
-1.8842055566652467 -0.4850291237734938 5.8539092786526865 255 255 255
1.4975985480095662 -1.235539641832649 4.687656396993519 255 255 255
1.5227511011993284 -0.7370571413006616 4.632951769925943 255 255 255
-2.1595696587402324 0.4208083820791038 5.885442806713901 255 255 255
-0.7623315510882844 0.5705162049237336 4.8836373400216475 255 255 255
1.1925387220412285 0.5809576794887087 4.627176618453891 255 255 255
1.1783147922395323 -1.118150592761403 4.801109591073399 255 255 255
-2.73517898154722 -1.5486981184177013 6.276450958556809 255 255 255
1.3211613870085948 -0.7310972527964699 4.713637486458391 255 255 255
-1.7870157516256697 -0.31506826282322 5.814966768390979 255 255 255
1.1865890770788803 -0.551325371389174 4.751237992908919 255 255 255
-2.095656586117169 -0.14149648231573922 5.9178801737489195 255 255 255
1.0070270877468184 -1.4759453171256502 4.905090239540524 255 255 255
1.2470486277780743 0.15244358787758408 4.655221250062575 255 255 255
1.1936374509789385 0.43176523995578564 4.643995286014564 255 255 255
1.3595383360094926 0.569924155224108 4.565496626584939 255 255 255
1.0465763579140306 0.2797523216927558 4.714186722340145 255 255 255
-0.7001046087171003 0.9196020601404683 3.7590409304213015 255 255 255
1.5338638387234065 -0.0030628556321156053 4.558444474872597 255 255 255
-2.270484160678693 0.6257127688986404 5.886599581567391 255 255 255
1.515103603690939 -0.24248408662744708 4.595889928413002 255 255 255
-0.04990125646964079 -0.1306454780921509 4.865397973633969 255 255 255
-2.327646475018177 -1.2122173978068822 6.100192872472785 255 255 255
1.2381746191791032 0.3015569231781776 4.634056269858312 255 255 255
1.7881281336296604 1.0556295243916576 4.367954521507351 255 255 255
1.5267620021541435 -1.4981821649349798 4.708760860467639 255 255 255
0.731116569867315 -1.411690008455464 4.985756504692285 255 255 255
-2.0975919770062323 0.0723984496213872 5.89091742000966 255 255 255
-0.35447359222980906 0.6326221217174787 4.725887711583038 255 255 255
0.11884600674464063 0.005212366830674462 4.9133420803352035 255 255 255
1.9736672925727594 -1.3605907645615114 4.513876427348221 255 255 255
-2.2954963278519585 0.7067429326011804 5.894286759669594 255 255 255
1.1773523177655418 0.5722850952843104 4.6311964754077355 255 255 255
-2.5161731078406917 0.9398682531777319 5.950765367444491 255 255 255
1.412076542523012 -1.0453767895601214 4.700451969226395 255 255 255
-0.6083782303556551 -0.4344698660291881 5.085522950930653 255 255 255
1.1837056809616922 0.7329297226031513 4.615324535518808 255 255 255
-2.3844315497754964 -1.6934431115179012 6.151658882488132 255 255 255
-1.5609561737042115 -0.32793386935078905 5.733089743960297 255 255 255
1.7418024978907602 -0.07039990831209204 4.486601419568981 255 255 255
0.6640096150639172 -1.2880283339987193 5.007702170109989 255 255 255
-2.806912934201442 1.0932198861361846 6.012151698855361 255 255 255
1.3626818750885172 0.7512720495161536 4.547580188275305 255 255 255
1.2549453334654441 -1.1060048514093044 4.771314022257732 255 255 255
-0.5380027759976589 0.8775628014258888 3.7046330232121263 255 255 255
1.5345937550042454 0.18100770973045427 4.533537811758544 255 255 255
-0.5262233927147768 -0.10955297991801222 5.029684823253087 255 255 255
-1.222148132749136 -1.6124674961939733 5.733014242292849 255 255 255
-0.9113137340704263 1.1097067084049854 3.7587662276792737 255 255 255
-1.8519412906005224 -0.320315999366552 5.850772568505444 255 255 255
-0.7017061244046634 0.7630594344370116 4.790599401578339 255 255 255
1.3230612765553547 -1.4954766896895817 4.785237795384978 255 255 255
-0.30515534434154956 0.24067052595544788 4.8256468762024225 255 255 255
-1.3702632642953045 -0.8029968282259209 5.711613601694179 255 255 255
-0.22685914355748965 -0.926837389897143 4.8578773479247666 255 255 255
1.7982362711972302 -0.03932000628147479 4.470194443121149 255 255 255
-0.010780306948530336 1.1043467033369576 3.659160793205687 255 255 255
-0.28967346137817623 0.27571572366420843 4.83212069874428 255 255 255
-2.0216695907632576 -0.8015057630082609 5.953826358638063 255 255 255
1.0325556996088205 -1.4818782190196527 4.892043704937064 255 255 255
1.7150480566223714 1.0187323657207128 4.387098193161642 255 255 255
-1.4880834428071734 -1.022377049210421 5.778333462835779 255 255 255
1.5267620021541435 -1.4981821649349798 4.708760860467639 255 255 255
1.884099849526512 1.0430841205118038 4.3275345230753315 255 255 255
-0.14492822189514068 0.9343336136075578 3.6650727327062467 255 255 255
0.9700908829124674 -0.7245441270772022 4.839915983358343 255 255 255
-1.4617443879033023 0.35829554519412654 5.331721290073214 255 255 255
-1.635161767996231 -0.9247793839991513 5.82081482249779 255 255 255
1.9333825927387025 0.7957965562018882 4.323841564809565 255 255 255
1.5556711913220935 -1.3193054207101211 4.663202384757109 255 255 255
0.9189381757689348 -0.72584755858684 4.862048886770296 255 255 255
1.8020655934329235 -1.3127849427944072 4.573615378834446 255 255 255
1.768798278459116 0.24222907090027448 4.448620580040253 255 255 255
0.5654264692733024 -1.2651042564238537 5.033592965377135 255 255 255
1.0214348806683706 -1.4265207208903952 4.88013812726913 255 255 255
1.231996602677309 0.5810559611685452 4.626682310174515 255 255 255
-1.9274795451490554 0.5351786160528391 5.788305872279297 255 255 255
1.7662618026014045 -1.518085513120677 4.611584436395684 255 255 255
-0.1553528918482217 -0.1969586992999815 4.907208303683952 255 255 255
-0.4726022433480907 -0.5726768530995137 5.057493662546736 255 255 255
0.4249204138303361 -1.1604384085812691 5.079048500296304 255 255 255
1.5064091445725236 -0.9354006035709376 4.641781330281858 255 255 255
-2.045625932999876 -0.3217670183646146 5.907822774196166 255 255 255
0.5237148003459339 0.5472991904947966 4.417047117580228 255 255 255
0.03572044076502862 1.0731232855382753 3.7191141667878 255 255 255
1.8619520968491001 -0.24352030236689268 4.456109770407659 255 255 255
1.5981488831418955 0.6308015032862211 4.467327257857328 255 255 255
-2.2763374511087684 0.45813990577599795 5.912315499918542 255 255 255
1.5055649958623676 -1.356805151055801 4.6955694746299335 255 255 255
1.6507882980411785 -0.7865368413105265 4.588964854323312 255 255 255
1.0944828659326813 0.6355546119033544 4.661122317960303 255 255 255
0.15561953365608389 0.6189900648498033 4.545582255889777 255 255 255
1.6942508064854198 0.7161882758387906 4.425791515879983 255 255 255
1.3789272282164626 -0.9275193692265014 4.7162612963703126 255 255 255
1.6980302041836333 -0.781169017645321 4.57021971973387 255 255 255
-2.285359937045052 -0.8268902813365238 6.036430292845932 255 255 255
1.3093869037100536 0.2839118989456861 4.610348076244632 255 255 255
1.4698165176951126 0.385875424867808 4.538664969705682 255 255 255
1.3678105006930497 -1.4868764473023277 4.765325303476525 255 255 255
1.312094621218188 -0.913171371734902 4.731354349464103 255 255 255
1.104863076685235 -1.4654547312644335 4.85044017760719 255 255 255
1.9827910023908475 -0.11774886914105623 4.397624220925597 255 255 255
1.2174993809877102 0.567190987453671 4.628683249275247 255 255 255
1.2165405039520605 -1.1614064375108226 4.785516545327615 255 255 255
-1.962128263342622 -0.13625747990384238 5.8633651115046534 255 255 255
1.8844714486545668 -1.5028314210227036 4.567880692202987 255 255 255
-1.3881707061527029 -1.584460824656786 5.789533084894257 255 255 255
1.299187390426868 0.7574422065760354 4.574756693817183 255 255 255
1.2401362642311171 0.5663457569071839 4.627679243928385 255 255 255
1.2943111534444465 -0.7401734623552493 4.719119941710618 255 255 255
1.1880629576289035 0.8733183561633093 4.612303485845904 255 255 255
0.3729656974811334 0.6560569931288015 4.453906615679521 255 255 255
1.7340330615271244 0.17507534705969954 4.473416141640226 255 255 255
1.5128343443620693 0.4307981097286048 4.5297041201070165 255 255 255
-1.8876426874448056 -0.6286830025514387 5.884710877799749 255 255 255
0.32380303484950385 -0.18404959756824005 4.852839637721243 255 255 255
1.276589870332726 0.33139702991639414 4.612301372069121 255 255 255
0.4993801035916321 -1.1813382658422524 5.054183717243771 255 255 255
-0.561870459946232 -0.45308605838925897 5.092917667911277 255 255 255
-1.9100955950125384 -1.3949252267568248 5.961299709968905 255 255 255
0.9121028284145989 -1.1998663988003901 4.902226394674168 255 255 255
0.6623167990837173 0.994893703540393 4.304026029229222 255 255 255
0.4656207613895488 0.30639353024846705 4.755274500893115 255 255 255
1.3645606072614243 -0.7116608807587029 4.692620829478017 255 255 255
0.28813852750882 -0.11292474520271051 4.85899845841557 255 255 255
-0.07516074662826756 0.5669268548195512 4.633827331696376 255 255 255
1.1119507765297318 -0.9419218465764074 4.8090189401502075 255 255 255
-1.9366322683573125 0.5244420591858466 5.789527755248175 255 255 255
-0.26721284089031644 0.7046042603143348 3.5931222548987263 255 255 255
1.9138057627366447 1.2129318650649674 4.2053655322868995 255 255 255
1.3952597767878245 0.8879239323147643 4.5240243990471845 255 255 255
0.47458044397283916 -1.5297923707423633 5.093396356825812 255 255 255
1.0979474670018168 0.3868830355060753 4.681124155175675 255 255 255
0.32616956943774683 0.24794939177993555 4.817478678064618 255 255 255
-1.9513502078688667 0.26967683774747186 5.815486461769712 255 255 255
1.0644087677001688 0.49879866582450727 4.685113033106968 255 255 255
-0.5753453528587739 0.9162099708400948 3.706359834798647 255 255 255
0.6630334641031301 -0.9105059349494863 4.968357804560348 255 255 255
-1.3881707061527029 -1.584460824656786 5.789533084894257 255 255 255
-1.2397773789572968 -1.6034846824821496 5.737642856609359 255 255 255
-0.2423066543495255 0.6436234806089702 4.680385918108704 255 255 255
