ply
format ascii 1.0
element vertex 691
property float x
property float y
property float z
property uchar red
property uchar green
property uchar blue
end_header
-1.736766549770499 0.4970069633614445 4.362631919338461 255 255 255
-1.8283292153506288 0.5023274096443429 4.34592401449766 255 255 255
1.9606071505583345 -1.7027796019466648 5.256538650446402 255 255 255
-1.7128201777240493 -0.4549106255048574 4.42021149566138 255 255 255
-1.781232532684152 0.5115868681552624 4.356241847957279 255 255 255
-2.0335180318317647 -0.8078524433131424 4.342893794274577 255 255 255
-1.9343349211699097 -0.7674145271475582 4.360271020082645 255 255 255
-1.7810642220784407 -0.9268368232897884 4.413320900973133 255 255 255
1.9387312689854836 0.07881502544092533 5.176033584121486 255 255 255
-1.3698659671664444 -1.1074613928305155 4.513392044371214 255 255 255
-0.9852504440116907 0.3194323149893988 4.0903845434579695 255 255 255
-1.9555746895039035 -0.24223751592709408 4.353374858647069 255 255 255
-1.9567214305115537 0.11267837895103333 4.329948715843228 255 255 255
0.9123443502290085 -1.5071512296823155 5.022765221190484 255 255 255
-1.963638565400294 -0.9399154583157564 4.356895144364539 255 255 255
-2.2295527858153124 -0.6078579383896396 4.300172858885795 255 255 255
-1.6186052522938101 -0.8222819438637766 4.4489569393262425 255 255 255
0.6498123851960075 0.8914895016909252 3.3961639639035863 255 255 255
1.742383403812361 0.1445208360033366 5.136076478130234 255 255 255
-1.160747440941089 -1.3038117386127512 4.566688210120151 255 255 255
0.27447977490398223 -1.1637093349387062 4.490650982491742 255 255 255
0.07583269093096452 -0.8394698346675755 4.532231343710391 255 255 255
1.1502811816322602 -1.237813573867174 5.058300049506444 255 255 255
-1.5379613831541803 0.17666585714423458 4.421129375366589 255 255 255
2.107302432554063 0.302174891594137 5.211725812408279 255 255 255
-0.6066846705653046 -0.6299685388010634 4.491477999474353 255 255 255
-0.018489684523571418 0.01678224296435665 4.390552782368237 255 255 255
0.05407625264482867 -1.0417756420533757 4.491738217798682 255 255 255
-1.9101539354333483 -1.2601876808998798 4.399067405729374 255 255 255
0.7681326839875269 0.33030521036256655 4.479120611933035 255 255 255
-2.1704403603477695 -0.44441122525423615 4.30481894408296 255 255 255
2.2602324014136332 -1.696952697781056 5.316345980056797 255 255 255
-1.5593923263505105 -0.7980995445274304 4.457014642351779 255 255 255
-1.6906514858771504 0.21808856344081257 4.3968072426290945 255 255 255
1.8374324595611091 -0.2190026249216829 5.18015439965041 255 255 255
-2.03902259780445 -0.04593151666633797 4.325159424355234 255 255 255
1.345221311954776 -1.2708322493399347 5.106443045032999 255 255 255
-2.000855228614251 -0.4232258031772719 4.347127629181243 255 255 255
-1.6562294603784438 0.6516862322269475 4.383163537693689 255 255 255
1.2717665495618042 -1.3180757203340485 5.0909280201691365 255 255 255
-2.0689048530187804 -1.2454566629869994 4.364803107012181 255 255 255
-1.509587880202359 0.24177509465590413 4.430253346206018 255 255 255
-1.0302034101637578 0.3313370869400416 4.075769221814957 255 255 255
-0.7044196006679184 -0.004807539675311942 4.453488632978912 255 255 255
2.0191989804996053 -0.9838971214102893 5.239992103312515 255 255 255
-2.1987918273033773 -0.609694652291116 4.302746590661152 255 255 255
1.564800704725218 -0.5842781063045334 5.139176179099613 255 255 255
0.8564274942243324 0.11026587097448308 4.79148648248752 255 255 255
-2.032296295544681 -1.1100436346392384 4.3653455272768005 255 255 255
0.8564274942243324 0.11026587097448308 4.79148648248752 255 255 255
0.2193244905221516 0.8837281824684673 3.300017748310097 255 255 255
-1.1990848879169134 0.31505573176536894 4.042768018226556 255 255 255
0.5053172054749868 0.7402638677544229 3.3888405542047573 255 255 255
-1.5591760747632748 0.29347640834327876 4.417035484461124 255 255 255
-0.2160652828207331 0.4573622172374792 3.1829677142909456 255 255 255
-1.5850729188737533 0.06859245993888746 4.425538879145526 255 255 255
-1.8654404658083725 -0.5910686866359358 4.381155442637123 255 255 255
-1.4681784594750888 -1.1366123246895534 4.490214345863976 255 255 255
0.06132650197969709 0.2891297698330017 4.320962537577916 255 255 255
-1.4049396094308952 -1.2983920495699424 4.5089618477389655 255 255 255
-0.5744114757165366 -0.3076953683167819 4.492034402046818 255 255 255
1.991718868041877 0.8860486449696513 5.169807001610939 255 255 255
1.1486901794593443 -0.7751070843257362 5.050845603141243 255 255 255
-1.818510197612928 0.08709292848916142 4.374858553545338 255 255 255
1.779986605220085 -0.7634054758096106 5.187806468821488 255 255 255
0.6400330387934631 0.0017763919841783814 4.748932257082257 255 255 255
1.7412382883373863 0.0939083288064383 5.141942661986237 255 255 255
-0.9085219179002773 0.3280248244703749 4.1052543999218365 255 255 255
-2.083060941813936 -0.4561237139337944 4.324422321486522 255 255 255
1.9386604027177032 0.3883443446075595 5.17209481570164 255 255 255
1.9351092781988526 0.8639889738217668 5.162177668868744 255 255 255
-0.8175982940302636 -0.11801973001324026 4.4329261145933705 255 255 255
2.007871457077012 -0.974684380138929 5.241427848397465 255 255 255
-1.2545299643991565 -0.9362008722546412 4.533647283076507 255 255 255
2.107302432554063 0.302174891594137 5.211725812408279 255 255 255
-1.4757176622111223 -1.1654204473309993 4.487369781569586 255 255 255
-1.2207325146126513 -1.0383164501280193 4.535004770842629 255 255 255
-2.019825634630654 -0.3749143685172254 4.335738673026436 255 255 255
-1.1110390674026627 -0.7736616925416724 4.545423994436242 255 255 255
-0.9143679360294412 0.39296065015994214 4.10162217453734 255 255 255
-1.791489045519572 -0.9307275337942154 4.40631627443554 255 255 255
-1.5617579336201932 -0.48902115483462927 4.445163943662393 255 255 255
-1.7098063219853057 0.07934008379928842 4.387862599496821 255 255 255
-1.5718162429729239 0.38108114109464625 4.415914269381629 255 255 255
-1.8457999006661503 -0.03810544158978764 4.368345137074569 255 255 255
-1.8063120176205505 -0.16578269809302756 4.3866073771854 255 255 255
-1.6684845353980546 0.5004206446562581 4.38615854231219 255 255 255
-1.7405947209920407 0.2141613382717743 4.381093429910677 255 255 255
2.2419792319710727 0.8691301895359711 5.222232608553621 255 255 255
-1.476799202655778 -0.7823729740297705 4.4733542755597 255 255 255
1.6364125102989144 -0.45492330093650174 5.136867593389279 255 255 255
-2.035492837970324 -1.1506160261086973 4.353476149676584 255 255 255
-1.5749676183127523 -0.9229711506671011 4.463067879900117 255 255 255
1.9428998092298402 0.06844873564581062 5.179834729039995 255 255 255
1.868049094480004 0.8677034979678385 5.13971885828483 255 255 255
-1.6245110611341544 -0.9164226255655564 4.452306531002219 255 255 255
-1.7710207491059577 0.08747840741103197 4.372638403097401 255 255 255
-0.7519239668394232 -1.4513988170220977 4.659239992165192 255 255 255
2.173349050841078 0.39959277031995755 5.225353819315281 255 255 255
0.5054203478570753 0.7007904978414022 3.3909776560010205 255 255 255
1.3934173632214195 -1.7392007415304227 5.135943403144538 255 255 255
-0.7569760695413178 0.40702435292035777 4.140659840961002 255 255 255
1.2383292880006564 -0.1769820956632162 4.768872249542293 255 255 255
-0.3113669902422398 -0.6650699009671242 4.420373861800667 255 255 255
-1.952295759777586 0.3926261802906619 4.321994313938614 255 255 255
-2.1311737795286123 -1.219871547086669 4.342220625799014 255 255 255
-0.24857899066196604 -0.6175047521128129 4.365263756979997 255 255 255
2.198230664850263 -1.3189227439820825 5.281248159788207 255 255 255
-2.1640784881571435 -0.22975497989184746 4.295506004097067 255 255 255
0.350618016904524 0.33514175892729475 4.3839457449836 255 255 255
-1.3413266188442896 -0.7864850284911392 4.506774817005613 255 255 255
-0.07103861951334849 -1.3135457455911796 4.431598528230239 255 255 255
-1.8718092041891672 -0.370364324983692 4.375643886251868 255 255 255
0.7466982055879436 0.9250981125266199 3.3803591594678846 255 255 255
-1.1600037457690058 -0.9335246819709623 4.554048262146891 255 255 255
-1.539933721276362 -0.7912430336117968 4.460390401833563 255 255 255
-1.564168072995083 -0.5172397981896706 4.445311396209639 255 255 255
-1.6024659583049619 -0.8242507741461136 4.4497439388291395 255 255 255
-1.6317553113346028 0.3793223716047637 4.390683692899039 255 255 255
-1.6656067454268428 0.42824769377699523 4.382388855441524 255 255 255
1.9155866345468728 -1.6999718689161436 5.239777779073107 255 255 255
-1.7852065993592676 -0.04579531132545031 4.382085710881276 255 255 255
0.7691226922929183 0.4317024891386757 4.473669913131293 255 255 255
1.7738698690625714 -1.435645691907362 5.211349523440211 255 255 255
-1.3197904062694965 -0.06636921843025163 4.481160961328069 255 255 255
1.2363288184465175 -1.4215233599988484 5.090964701780053 255 255 255
-1.679575834015531 -0.8253940716794057 4.423730797952319 255 255 255
1.748817848620651 -1.3221970757173531 5.197829833187922 255 255 255
2.1469643972255206 0.9134959906406146 5.18934512639395 255 255 255
-1.5809018530721564 -0.45965181737601774 4.450663981374751 255 255 255
0.3117887801425882 0.6970664391236829 3.346392320303789 255 255 255
0.004985808083643028 -0.6063820203757935 4.501085403205555 255 255 255
-1.4802406998629383 0.1546114540534951 4.436314766550125 255 255 255
-1.7211187962352015 0.21633076597798698 4.384689720837366 255 255 255
0.1932045403212724 0.7514661573446098 3.3169300675568643 255 255 255
-0.6446564202861073 -0.14752145757971052 4.405629054057405 255 255 255
-1.6224754370174823 0.19869539475547207 4.403724885887445 255 255 255
-2.059703718098251 -1.1407418166913637 4.349119970029651 255 255 255
-2.03902259780445 -0.04593151666633797 4.325159424355234 255 255 255
-1.245690253364162 -0.931808001041843 4.5354178248479 255 255 255
-0.26167950039023935 -1.169818871016913 4.34786739983982 255 255 255
-1.0664044133316932 0.8979185895564752 4.030741131590997 255 255 255
-1.79203654278121 -1.136035719209867 4.418520092412354 255 255 255
-1.572113595627931 -0.021207175204490235 4.4166173732981155 255 255 255
-1.682702266001927 0.4895527359852605 4.385755342298973 255 255 255
0.28659099931325455 -0.4322332757535639 4.563911724645215 255 255 255
2.225037144476802 0.5336050535299073 5.24013067936985 255 255 255
1.984479778667948 -1.497703129518571 5.2507050577270284 255 255 255
1.475152458481002 -0.7868969039611042 5.124825805490731 255 255 255
-1.4601033751982238 -0.9497498243242791 4.485020166994145 255 255 255
-1.128207430056524 -1.2275584402432331 4.567893243550384 255 255 255
1.8557794191292865 -1.6801582685748089 5.242288185884493 255 255 255
-2.0122892961400436 0.4254902020406825 4.305510263300781 255 255 255
2.0095122467702433 -0.05275986159061394 5.199769487168203 255 255 255
-1.0731210188806415 -1.3162104873101514 4.588750722497882 255 255 255
-0.973786085313315 -1.2109308365159746 4.605680887337913 255 255 255
-0.37498330362539484 0.5160352158057977 4.154726334665158 255 255 255
0.016957391225424882 -0.5994872060780128 4.501157896435887 255 255 255
-1.2545299643991565 -0.9362008722546412 4.533647283076507 255 255 255
-0.36840346763683507 -0.43870115089585726 4.425256754428431 255 255 255
1.5866646207167692 -1.1474546604296787 5.158631530277559 255 255 255
-1.516163405308753 -0.7181159806813832 4.459012411381067 255 255 255
0.28186416846413753 0.883951993040263 3.3111876098800854 255 255 255
1.700107915414641 -1.5122842355357913 5.192611406305326 255 255 255
0.8614050815879312 -1.414355298398347 5.00801057854174 255 255 255
1.0500264467555 -1.6380956640181266 5.054494692702744 255 255 255
-1.806816831835907 0.38257386816659134 4.355873229990296 255 255 255
-1.711259796310212 -0.16705032447600743 4.394615658364524 255 255 255
-1.879473790127543 0.2901225903861675 4.341432653612597 255 255 255
-0.6262239418953747 0.33337421181304877 4.172093725149857 255 255 255
1.0016868204455294 0.30416143239720206 4.518938492813345 255 255 255
1.9948861892760996 -1.8471230867164012 5.257006933110107 255 255 255
1.0575834985212818 -1.5709499564579015 5.0540347317012015 255 255 255
1.9460231585451704 -0.9369098627237618 5.227853617213537 255 255 255
2.0927710185475807 -0.2548059955830683 5.22715920640593 255 255 255
-1.0835524017235871 -1.3327762700480565 4.585565196728821 255 255 255
-1.291915123652413 -1.0767046761541417 4.5284351773149165 255 255 255
-0.4975479770301682 0.4074136180759424 4.195231213064982 255 255 255
1.1436187085849896 -0.9141806926478223 5.049145671357926 255 255 255
1.524648256779883 0.06318017701130602 5.103159476857676 255 255 255
-1.6061199633181125 0.82777043035654 4.384142634740243 255 255 255
-1.9595882340387063 0.6323579809903054 4.306105332376838 255 255 255
-1.9425272907239945 -0.4475766349588115 4.356537701358308 255 255 255
-0.8719239966338657 -1.304532759589282 4.628730798394682 255 255 255
0.20255868661216922 0.32605242409369545 4.364367251055771 255 255 255
1.5438513298363383 -1.438161280159173 5.1563181121492025 255 255 255
0.17745228177971642 -0.533590607795183 4.521135254055208 255 255 255
1.1486901794593443 -0.7751070843257362 5.050845603141243 255 255 255
0.3816322922556924 0.4697626626124321 4.3686535551462 255 255 255
1.8770054439953974 0.3842043046005277 5.161440761963354 255 255 255
1.154993087438789 -1.4054320915713228 5.083458873143768 255 255 255
2.0776795470615013 0.24758549581260722 5.20944518248704 255 255 255
1.883687383275149 -1.1243764853154838 5.213711370063344 255 255 255
-1.5182260942473524 0.15313080969469142 4.429668179951421 255 255 255
-0.06682905508465825 0.46076776461862307 3.2240969133026556 255 255 255
2.220709659554882 0.595769402784212 5.223242318755445 255 255 255
-1.8589338230054118 -1.2573907223860854 4.399762760308261 255 255 255
-1.6001187744400285 0.20182610444804408 4.414008958343298 255 255 255
1.159650703436358 0.06819758219601213 4.746286966906219 255 255 255
-1.609400442454484 -1.0213130714393495 4.44620671159784 255 255 255
-1.2959628671888719 -1.0581890509577927 4.524975021333972 255 255 255
1.5995362450088262 -0.4224290284701872 5.129728032393095 255 255 255
-1.7107382884010895 -0.12625743688311217 4.391035992093596 255 255 255
1.2629178258408147 -0.598612281913414 5.070993796300291 255 255 255
2.173349050841078 0.39959277031995755 5.225353819315281 255 255 255
2.048622011540206 -1.5136417137473022 5.272758491194213 255 255 255
1.772555960471877 -1.4981146588298095 5.207064462458126 255 255 255
-1.848709865658631 -1.1350620466842232 4.402540167380944 255 255 255
2.1829775203558706 0.18696595241689318 5.229784546034914 255 255 255
-1.4325373906738383 -0.9482018058308492 4.500775225549283 255 255 255
2.1106115408898787 -0.2747389304183963 5.234573323676792 255 255 255
-1.5852194806224158 -1.2467279196601744 4.473601773988383 255 255 255
-1.711259796310212 -0.16705032447600743 4.394615658364524 255 255 255
-1.308750773892915 -0.9962996030692443 4.520199299624187 255 255 255
0.2563124993233339 0.4741198674362861 4.357562550931152 255 255 255
2.0236086914517784 0.5320922763236614 5.190337499980943 255 255 255
0.704915384497495 0.4017800754351042 4.457967145777203 255 255 255
-1.2931314703407228 -1.0670234367128921 4.5278870180259885 255 255 255
-1.2207325146126513 -1.0383164501280193 4.535004770842629 255 255 255
-2.055747395579788 -0.7508637102242918 4.335484529610345 255 255 255
-1.534791196145395 -0.36869317098706367 4.448963597802894 255 255 255
1.326674524092862 -0.9314148290650734 5.093145209939773 255 255 255
0.7444231845823285 -0.0023806627997445392 4.765783310340399 255 255 255
-0.3240751101561736 0.32244034745561473 4.239659513889062 255 255 255
1.7963316357737416 -1.1403078466643277 5.1846173953781705 255 255 255
-2.1341803533105743 0.21510866093056538 4.287624579028233 255 255 255
2.199223963290047 -1.7036783668021747 5.3105207243907655 255 255 255
-1.9565273579093243 0.21494331234622557 4.318708206891625 255 255 255
-1.9510709712562362 0.9080576189750461 4.30068345497472 255 255 255
-1.6329347750186922 -0.8098742445237417 4.449649205476129 255 255 255
-1.0787919579455727 -0.9357101222614695 4.574770758043557 255 255 255
1.9014944044679785 -0.12180640958464078 5.182455216451891 255 255 255
-0.99847165189568 -0.930532106228635 4.59225393055025 255 255 255
1.6587603927428631 -1.123185773806613 5.177668687211973 255 255 255
1.0257061844254969 -1.4316667889901296 5.047504058651136 255 255 255
-1.9425272907239945 -0.4475766349588115 4.356537701358308 255 255 255
-0.672900292456668 0.3237122423106543 4.159804040824187 255 255 255
1.6556814290554809 -1.1443458506368653 5.166941372400681 255 255 255
1.779986605220085 -0.7634054758096106 5.187806468821488 255 255 255
-1.5642185744936519 0.2030160305790282 4.42090044397935 255 255 255
1.4966153641374038 -1.2613855205668623 5.144231705253597 255 255 255
-1.9710082956602226 -0.8026104579200363 4.3524795058869366 255 255 255
1.1622881379854006 -1.6737065088513052 5.077407966154591 255 255 255
-1.9546422350738097 0.48758750651926847 4.311428783692965 255 255 255
2.3095985510922614 0.9236887712396092 5.2166378167019385 255 255 255
2.050810179543601 -0.7390863180173859 5.234466826565933 255 255 255
-1.7646888771001745 -0.16949926999455261 4.386927851520941 255 255 255
1.6456621578469828 -1.3197754651672118 5.1735685181011695 255 255 255
-0.24001114029526766 1.0254593708661333 3.1612290024937115 255 255 255
1.6859608196963132 0.1240419436561456 5.119228203612334 255 255 255
2.1364623780000516 -1.1258338447926761 5.267744187081953 255 255 255
1.192350823959559 -0.7580091537058262 5.046522081544536 255 255 255
0.6477781869195718 0.4034070680499133 4.445574122790208 255 255 255
0.43091705317339785 0.8284626547096825 3.3688786410826053 255 255 255
1.4580519313050058 -1.2606726043738787 5.1330135586586145 255 255 255
-0.650458945954754 0.33838552618283835 4.167355519378726 255 255 255
2.095459472010267 0.23380370616024043 5.213406693028351 255 255 255
-1.7474360351613905 -1.2588069685252143 4.439032840201847 255 255 255
2.263173188206795 -0.7818154691714476 5.288068230554042 255 255 255
-0.018489684523571418 0.01678224296435665 4.390552782368237 255 255 255
1.3234086043003574 -0.9236395144023766 5.093551837260816 255 255 255
-1.7512515451627666 0.19355151849092164 4.382019325744193 255 255 255
-1.3242721885518078 -1.2399312265680715 4.523415732123118 255 255 255
-1.7107382884010895 -0.12625743688311217 4.391035992093596 255 255 255
1.0530376004373372 0.4522831784516127 4.535516659959146 255 255 255
0.39616154188871083 0.09469961559680316 4.574047489074242 255 255 255
0.31320517115612473 -0.4350617699733927 4.5663984804448 255 255 255
1.2353938211279054 -1.2649057145415143 5.079566443722335 255 255 255
-0.636441839034088 -0.17052841702206395 4.406545766797441 255 255 255
0.7241192004818627 0.0180525038428323 4.763974149459167 255 255 255
-1.9216107909792137 0.49907118547465473 4.322012937786625 255 255 255
-1.6567837423085583 -0.09040891202006822 4.394239803091658 255 255 255
-1.398836154064201 -0.26531560657296877 4.477113522178294 255 255 255
2.451032449415734 1.0157233699820152 5.160342335134332 255 255 255
0.03800358497496868 0.3240117877351607 4.319832266789489 255 255 255
1.2752885041027486 0.41098487721692295 4.586699721536095 255 255 255
-0.31830737590439867 -0.29381618415340777 4.430248386830362 255 255 255
1.5088205600261262 0.07922335588234347 5.102123730324434 255 255 255
-1.3052722550358953 -1.0186156130677688 4.518294179616618 255 255 255
-1.8804766953760719 0.20671610254961378 4.351705834348252 255 255 255
-1.8016738060360435 -1.1731645564302908 4.415267975923734 255 255 255
1.926348136478146 -0.6051774864183188 5.21558801065552 255 255 255
2.0834724072082436 0.8916360617458046 5.174012793212432 255 255 255
-1.5419127226838152 -0.35410219047934527 4.444529549186022 255 255 255
-1.4835610259854968 -1.239821043160438 4.489835503175171 255 255 255
-1.7244936298607993 0.19638501769383201 4.382406083389932 255 255 255
1.9283354928016925 -0.40279505807952476 5.202401176629564 255 255 255
-1.5984664059338887 -1.2774677365739973 4.4602704642731155 255 255 255
2.151554030676933 0.05246817982616479 5.235274949297671 255 255 255
-1.5184394041688611 0.37591038618949985 4.430911034036844 255 255 255
-0.3471258870495529 0.45784138767095467 3.2317501821022696 255 255 255
0.05386532300952317 0.8163008900089423 3.288564622470811 255 255 255
-0.20290543123522853 0.498032515900159 4.192048715203306 255 255 255
1.8488679781468174 1.0810422691774433 3.928015116876082 255 255 255
-1.2219106371143253 -0.6003783944791665 4.527503357897513 255 255 255
1.8856841584133361 -1.6722390362871893 5.221450051918713 255 255 255
-1.9973707899020543 0.39796507637380124 4.312696427947425 255 255 255
-1.7226681294232762 -1.2590570778787822 4.441467146048701 255 255 255
-1.8016738060360435 -1.1731645564302908 4.415267975923734 255 255 255
1.7683750228132513 0.5200774517895643 5.1260357385978095 255 255 255
-1.4335274647952192 -1.277036214518635 4.495223023018735 255 255 255
1.2411548942906512 -1.0602305198338922 5.076240829675443 255 255 255
-1.7136720327218489 -0.13255015565309958 4.391892303279966 255 255 255
1.8674468901050016 -0.024610371925053234 5.165030626817925 255 255 255
-1.8576101285047262 -1.2889693235671422 4.401257833546821 255 255 255
2.2573804387300016 -0.39919483014522994 5.262748099818789 255 255 255
-1.8743177557942587 -0.5504970813856955 4.380974248992297 255 255 255
-1.0442065852202902 0.3160523450624588 4.076430277867802 255 255 255
0.6635744526800995 0.0900941419358848 4.748608860299867 255 255 255
-1.4631980043164352 -0.939726675746774 4.488680093207386 255 255 255
0.9076216798623724 -0.3032816673670119 4.789232686339557 255 255 255
-1.6822227197642254 0.8140095967664036 4.368318367229187 255 255 255
1.77953877193567 -1.5150015297830992 5.216096031678866 255 255 255
-1.8717885112983474 -0.5137001618523093 4.37960263255773 255 255 255
1.9329703371915705 -0.06756701151452328 5.180566179735546 255 255 255
1.871621054665437 -0.4770556057268529 5.192666963864615 255 255 255
-1.0351450512166847 -0.9301904249101315 4.587920362746358 255 255 255
-1.173256833033807 -1.2478519587004282 4.557165604349379 255 255 255
1.2516720024194754 -1.0582675745028787 5.076032557628353 255 255 255
-1.8063120176205505 -0.16578269809302756 4.3866073771854 255 255 255
2.318721118157677 -1.3117607623050795 5.31574313604055 255 255 255
1.8451502600580514 -0.06420164328633314 5.1769739374778085 255 255 255
1.866262898738297 -1.5112810337109144 5.23000940052222 255 255 255
2.0716505238097485 0.19902191444187484 5.197012155564319 255 255 255
-1.570701770518314 0.3926472155607535 4.413470799170418 255 255 255
-0.6842330634454791 -0.4146300379938157 4.471883607995414 255 255 255
-0.9783300895235942 -0.9160383903044552 4.591398914536607 255 255 255
-2.2087999246124834 0.2146445093334146 4.273168819715667 255 255 255
2.026087724679514 0.2356611876780255 5.210800674629444 255 255 255
1.7436961662185289 -0.0781960783600195 5.151489944115524 255 255 255
2.1307870858107982 -1.6918062485131062 5.29694085130751 255 255 255
1.6292547451903814 -0.6431475509103426 5.154244058561319 255 255 255
0.3499542368107199 -0.6148538217755665 4.497707185019516 255 255 255
0.4869165108504345 0.8183181424012295 3.3809819618479806 255 255 255
1.2678338680625645 -1.1287722903963462 5.093500177457957 255 255 255
1.8849061614163773 0.46615943029355433 5.153740817014758 255 255 255
-0.31717307086274066 0.005900864485079432 4.423028546350686 255 255 255
0.07159971367103052 0.3577908519105392 4.329123746930012 255 255 255
1.7852539416977222 -1.3963228840448296 5.207246494930729 255 255 255
-1.827444807173001 -0.45866328713150833 4.387578985812182 255 255 255
2.0128636272680773 -0.03519921334050249 5.199802880178462 255 255 255
1.951069189856496 -0.22329847774376765 5.199866281680586 255 255 255
-1.6205650231808117 0.8254506213100092 4.38186266097804 255 255 255
-1.9536241704114932 -0.6277942221001166 4.355820335188806 255 255 255
-1.6722918649681071 0.4748538309173619 4.379624634254225 255 255 255
-1.8589338230054118 -1.2573907223860854 4.399762760308261 255 255 255
-0.31830737590439867 -0.29381618415340777 4.430248386830362 255 255 255
0.29118122380054295 0.7521897965059442 3.339671438295467 255 255 255
1.5462501342416537 -0.606984456287093 5.13033481809753 255 255 255
-2.1361361701801953 -1.1546712385161662 4.339704952614404 255 255 255
-2.0206694810187558 0.40891422985292375 4.302044421313821 255 255 255
-1.1944980069467792 0.3037314847686788 4.045219523878506 255 255 255
0.013701641562621625 0.6364320595263085 3.2837053785111228 255 255 255
-1.7529705835642246 0.5007113647138217 4.368080358539744 255 255 255
1.6418669003761186 -0.9481486744813095 5.158575143986702 255 255 255
1.6504611473774333 -0.6665053525875592 5.151730548032034 255 255 255
-0.2639944445250741 -0.6651683149627543 4.43119652503212 255 255 255
-1.1512562601535268 -1.2156675168682325 4.564387774217696 255 255 255
-1.7817553675965678 0.10690066938285699 4.3688637755605 255 255 255
-2.1846097946220273 -0.9112086982207296 4.3159114470355755 255 255 255
-0.11779226892483599 0.7315415536171564 3.2533170583324256 255 255 255
-1.88532427319912 -0.9353763696419123 4.391547271660133 255 255 255
-1.0731210188806415 -1.3162104873101514 4.588750722497882 255 255 255
1.1556972934404768 -1.254947144563461 5.066913500077634 255 255 255
2.168042303593283 -1.325562650098799 5.284159210481701 255 255 255
1.409163952216591 -1.431929576678136 5.125289953365433 255 255 255
1.3486790776619049 -0.5911601248574064 5.086111769941213 255 255 255
0.7910519771811093 -0.32299240207081137 4.790244579935412 255 255 255
-1.7160670531838735 0.8210875622466506 4.363072787735597 255 255 255
-1.5135616725686778 0.17001738555153836 4.4262387188954015 255 255 255
-0.6396624907839478 -0.1591539065619077 4.404975903481068 255 255 255
1.4722509138874667 -1.4327541062435782 5.139557664041953 255 255 255
-1.8937495272339795 -0.9431898294126406 4.383854642495532 255 255 255
-1.785433973222898 0.20042681324441894 4.373862934586039 255 255 255
-1.163110634508779 -1.2481639044644082 4.561940734067182 255 255 255
0.6674267576099396 -0.6631735448208448 4.748487685928169 255 255 255
1.7815377601944755 -1.2981587671465278 5.199188288332899 255 255 255
-0.37498330362539484 0.5160352158057977 4.154726334665158 255 255 255
0.3443377995066848 0.3989384857804809 4.380242270003835 255 255 255
1.7008811100791603 0.2100618394380802 5.1306526257363085 255 255 255
2.038079425178063 -0.9798493165483256 5.236709562936689 255 255 255
1.69582576377727 -0.05862775942482799 5.142507352846856 255 255 255
1.1486901794593443 -0.7751070843257362 5.050845603141243 255 255 255
1.1060021988059474 -0.9881761981466333 5.043127904075455 255 255 255
0.01204770724600339 -0.3093887670087552 4.420942210355708 255 255 255
1.758090967468775 -0.9324951006493737 5.186591355357826 255 255 255
-1.9225124492951322 0.25903535255529636 4.32882405293203 255 255 255
-1.8859557899814487 0.37038546892610824 4.339410398077124 255 255 255
-0.9792674348229986 0.8460753313544372 4.060227718284137 255 255 255
-0.6271517442362913 -0.23629146642505464 4.458539099108726 255 255 255
0.034991052974790604 -0.8981570808608079 4.528918635170502 255 255 255
0.7514000560005528 0.7609218161105687 3.441026052749504 255 255 255
2.0556728446772357 0.21917765977972808 5.205198955028751 255 255 255
1.3246828997524829 0.3079299151462967 4.603651372629243 255 255 255
-1.5623467488560172 -0.2905222713913302 4.4359534037365025 255 255 255
1.5368060654740283 -0.7725620965359453 5.137041422262347 255 255 255
-1.5379613831541803 0.17666585714423458 4.421129375366589 255 255 255
-1.9857060979903407 0.1610827784132311 4.314513058103409 255 255 255
0.9434041893857357 -1.428154582885588 5.029240195030005 255 255 255
2.0761278212943446 -0.4238449125662148 5.241882539077361 255 255 255
-1.3989188425943626 -1.242051114898942 4.510203665012522 255 255 255
1.5500511492992788 -1.1469995393599903 5.1523653824461295 255 255 255
1.999672481843741 -0.22958228034791628 5.2099483272703715 255 255 255
-1.3989188425943626 -1.242051114898942 4.510203665012522 255 255 255
-1.4925123932115005 -0.7902511668986824 4.475220277673546 255 255 255
-1.8701035822893295 -0.4581582566416253 4.381142793955676 255 255 255
-1.1794643851910835 0.3721754580662906 4.043699012273526 255 255 255
1.2218126297234015 -0.9286422361226988 5.069417260636601 255 255 255
-1.943404352506377 -1.3274021809849408 4.399337273961284 255 255 255
0.5689451224413624 1.0343904491076996 3.3383979816339013 255 255 255
-1.4386695869843071 -1.310755784131771 4.505602805078245 255 255 255
2.122762674322415 -0.6097728174659219 5.252276181743788 255 255 255
-0.33652948030612834 0.010474976301483488 4.418801574260014 255 255 255
-1.0965977566558411 -0.6364386712687639 4.553334185442227 255 255 255
1.213513216477574 0.3335871644681432 4.567592055629063 255 255 255
0.34563572200558396 -1.4766773793190742 4.415201909634806 255 255 255
2.1454323395417556 -0.009749336850467421 5.234357598356993 255 255 255
-1.8569728936490482 0.6397113731127057 4.334955739389122 255 255 255
-1.234664177174404 -1.1097677626830298 4.547797636613908 255 255 255
-0.34024793631650374 -0.4910078231105988 4.415369844330646 255 255 255
0.4437409310956456 0.34444064681354414 4.406164071585648 255 255 255
0.7242047104911304 -0.32256786456279285 4.76133383138237 255 255 255
0.6763554921063417 0.70531973201381 3.427302430945369 255 255 255
-0.2860786890990383 -0.01978806348799579 4.425960597964102 255 255 255
1.7585138768182078 -0.40694382426581 5.164269968787067 255 255 255
1.6056538206801578 -0.9481272438699705 5.153482018300528 255 255 255
1.5946291245249127 0.2012703741646469 5.107223465046879 255 255 255
2.3359317178124006 0.6164812968105747 5.237701559534539 255 255 255
-1.0119904574785408 -0.9298233807429788 4.585839658476696 255 255 255
0.6763554921063417 0.70531973201381 3.427302430945369 255 255 255
-1.7107699705505521 0.1966723476106328 4.38666633793148 255 255 255
-1.7959528513846705 0.08988678112454952 4.37282674329518 255 255 255
-0.10305420898551215 -1.134384771367316 4.387853747587409 255 255 255
1.9595881737002643 0.2310047707105309 5.188179406793658 255 255 255
-1.8569728936490482 0.6397113731127057 4.334955739389122 255 255 255
-1.5905045040501717 -0.46719422972269015 4.43709280528924 255 255 255
-1.1594107036772352 -0.9087443050522561 4.537348341591991 255 255 255
2.094722357170913 0.544519690621356 5.1900966485861835 255 255 255
-1.147902212003774 -1.2928288702177642 4.572587542931781 255 255 255
0.013701641562621625 0.6364320595263085 3.2837053785111228 255 255 255
-1.229981175377652 0.4819483530056151 4.0252900457767815 255 255 255
1.5553958389487172 -0.962789623635835 5.149228381859467 255 255 255
1.1600703086490212 0.09367438449604083 4.741584911105968 255 255 255
1.0977745584350265 -1.7109000829389358 5.070473503970817 255 255 255
-1.454086037621849 -1.1264587029566058 4.49613764962939 255 255 255
0.016957391225424882 -0.5994872060780128 4.501157896435887 255 255 255
1.9968390648205205 -0.9608383273022287 5.246926895544913 255 255 255
-1.0187874805279158 -1.3325703360659855 4.597361409988249 255 255 255
-1.461009746798843 0.3018193757309762 4.433326707644662 255 255 255
-1.7308992918464234 0.6367189631615446 4.368702620153935 255 255 255
-1.821160984166772 -0.046112049929532856 4.378220892016781 255 255 255
0.2945007756853 0.41419188761969505 4.366935003576366 255 255 255
-0.1372523616969865 0.4106673089408291 4.2751681111537625 255 255 255
-1.231089926379704 -1.0618330105602 4.5362268778606945 255 255 255
-0.08065281392031624 0.005070740643425459 4.398861114543902 255 255 255
-1.4371412611296053 -1.2251585796610371 4.497383855398053 255 255 255
1.879781636523972 -1.7031349687613149 5.244466535601036 255 255 255
-0.25971593672998566 0.9206393169759398 3.1621175620379316 255 255 255
1.7818948039022413 -1.121163225389967 5.196793601507687 255 255 255
-1.5684973166938616 0.9761746959701693 4.3209532570614595 255 255 255
1.8971084576119406 0.4511987026000022 5.1498010529730065 255 255 255
0.4803401688633889 0.3270788175873219 4.406907114547317 255 255 255
1.2889384544136435 -1.2822415711902342 5.092607242509304 255 255 255
1.7274470570975777 0.13587772988898722 5.136892243526422 255 255 255
-0.22370162356955797 0.7345210934829094 3.225620590608097 255 255 255
0.8551193603382952 -0.11112320939501057 4.792800127465424 255 255 255
-1.443860168056629 -0.06677277492417558 4.445964113643992 255 255 255
0.01204770724600339 -0.3093887670087552 4.420942210355708 255 255 255
1.3419242908291829 -0.9391837296870722 5.100494324991079 255 255 255
2.0290961362625275 0.22260421858597934 5.200747576026441 255 255 255
1.6736570417125929 0.06617737924369332 5.12889728460378 255 255 255
-2.00276934472926 0.8146140116321592 4.30192152439353 255 255 255
2.137173204037578 -1.458618699379059 5.2848337051574426 255 255 255
1.3915293230423469 -0.9303318412271879 5.122811731748846 255 255 255
1.6375696586264317 0.1255225923780949 5.105887898326582 255 255 255
-0.7569760695413178 0.40702435292035777 4.140659840961002 255 255 255
1.5650247436039284 -0.9776825176137288 5.14386161336983 255 255 255
2.2310256662912566 -1.8627577324308022 5.314564975914369 255 255 255
-1.3736187160436018 -0.7897619249027851 4.499013420999769 255 255 255
1.8989815283414002 -0.09243181183657427 5.183046794859112 255 255 255
2.0236086914517784 0.5320922763236614 5.190337499980943 255 255 255
2.297969274762097 -0.06275577815040968 5.263413825173319 255 255 255
1.7212039328567463 0.06797472634203348 5.138729427046898 255 255 255
1.6859608196963132 0.1240419436561456 5.119228203612334 255 255 255
1.597996242421473 -0.6078007229472021 5.148399656911225 255 255 255
2.0595495894000218 -1.8493841494623142 5.276419686698404 255 255 255
0.057457435461955864 -1.3300060752071516 4.449781768294512 255 255 255
-0.3649301348402141 -0.14055087049530587 4.412898844315994 255 255 255
2.1454323395417556 -0.009749336850467421 5.234357598356993 255 255 255
2.0927710185475807 -0.2548059955830683 5.22715920640593 255 255 255
0.19936814976469733 -0.7509651725394733 4.557471317121101 255 255 255
-1.7717929779765216 -0.920469364706077 4.417976533428851 255 255 255
-1.9101385619104785 0.9411050649672292 4.270279307232771 255 255 255
2.1217062025382156 -1.8902455629754638 5.289288733086855 255 255 255
2.2027152670630756 -1.8626774901522274 5.311873513380624 255 255 255
1.8495037965083847 -0.23442196445685665 5.186700573143638 255 255 255
-0.32014842349301215 -0.3672830226834945 4.4380225780307745 255 255 255
-0.31220636724195483 0.5207969090344629 4.16669741081121 255 255 255
1.4058394426480825 -1.6013222911749065 5.136489001238411 255 255 255
-1.5320420404664257 0.5075573697336823 4.416732134255393 255 255 255
0.3377682594238421 0.008391505313769212 4.562359392987073 255 255 255
1.1111139735998863 -1.316254993345589 5.064260905339763 255 255 255
0.3367916376695117 -0.28835607847146694 4.570094986428474 255 255 255
-1.1814912262570132 -0.9063942985691719 4.546603338342014 255 255 255
1.2771367776430342 -0.6985024132491257 5.071272967273377 255 255 255
-2.2515142167569744 -1.2284404438813323 4.3096576429083475 255 255 255
1.9834349730190857 -1.0632750785267882 5.241542214756791 255 255 255
-1.2944602770966498 -0.788181617253171 4.515676149877237 255 255 255
1.6266388994992869 0.025392820445379737 5.121903814834849 255 255 255
-1.7492475098618505 -0.9461017562902067 4.419324643231649 255 255 255
-0.29148115412486825 -0.30419825373305925 4.43409705021059 255 255 255
-1.8571851118331504 -0.4723699066250495 4.3767404036657975 255 255 255
-1.4917981665980151 -0.14883461756680666 4.452881648661635 255 255 255
0.843989854983471 0.3308752694844039 4.480430069627957 255 255 255
2.1311124207854237 -1.1605084537022994 5.26439570618761 255 255 255
1.1643758486820497 -0.9021466928850447 5.052578478083567 255 255 255
1.3934173632214195 -1.7392007415304227 5.135943403144538 255 255 255
0.5658300848779818 0.32664854400876736 4.435161311639707 255 255 255
1.5291751641593312 -1.3223534254784337 5.154567208715253 255 255 255
2.2186956637414514 0.560213170527728 5.224224456491919 255 255 255
-1.551372628979171 -0.787646769867438 4.45523507948552 255 255 255
-2.036805703811459 -1.1472583867112969 4.3495056107674674 255 255 255
2.1119253450398365 -0.7528882754689884 5.25495682029396 255 255 255
2.1438161358951127 0.01736945646414186 5.231121207357842 255 255 255
0.6895643374528666 -0.15211587501920848 4.682248583588681 255 255 255
1.4889865945304952 -1.1777129404757012 5.132702337146566 255 255 255
-0.3128963927425807 0.9143934301147966 3.194305717271214 255 255 255
0.5437420705295526 0.7377677845977505 3.3904238415824435 255 255 255
0.9026031987259113 0.40376672044504625 4.505988313798706 255 255 255
-1.0183155116957696 -1.316529749839372 4.599356832443317 255 255 255
-2.0335180318317647 -0.8078524433131424 4.342893794274577 255 255 255
1.4689275178896355 -0.9221445994265437 5.124048800346624 255 255 255
1.183368210847298 -1.3766262888657317 5.080143516980596 255 255 255
1.2839499261033374 0.27890133571783776 4.672795999919771 255 255 255
-1.077192169021362 -1.389406180537928 4.593165482453134 255 255 255
1.4468353831508216 -1.156038171562248 5.127723172554535 255 255 255
-0.9174306143369803 0.058434243321903286 4.400950995809365 255 255 255
1.124025597111499 -0.9169134438634847 5.044013207375279 255 255 255
1.727969901347782 -0.058445636834008746 5.144319180715177 255 255 255
0.07708848718419144 -0.6476150056349576 4.500093861553583 255 255 255
-1.188252141966017 0.39030043541135445 4.043675956341137 255 255 255
1.350026201894575 -0.9243873555121578 5.0975487756243565 255 255 255
1.7877961720558226 -0.42726250793611237 5.17829263626467 255 255 255
-0.2856595852854275 -0.019232974278886785 4.425992288007011 255 255 255
1.6646665682459394 -0.9295412796891952 5.163795957717942 255 255 255
2.029326882710686 0.5478738650990709 5.184527247648701 255 255 255
-1.1078213017951593 0.38631833417850264 4.061642179750825 255 255 255
-1.2343273251694535 -0.6161659688062993 4.51490236429645 255 255 255
2.27294872956979 0.3928211910629075 5.2400718610262125 255 255 255
0.699314746911198 -0.13412072733054203 4.686943693649266 255 255 255
-1.1110390674026627 -0.7736616925416724 4.545423994436242 255 255 255
1.7418079903029655 -1.129677349887677 5.19410354561509 255 255 255
-1.268968826519865 -1.2982644731276642 4.535923873984231 255 255 255
-1.9820728178529585 0.07955869411542718 4.326309334144384 255 255 255
1.0229441261910193 -0.9346437850012154 5.032979832127295 255 255 255
-1.7671137275460465 0.11521834997311728 4.3700753178471 255 255 255
-0.31717307086274066 0.005900864485079432 4.423028546350686 255 255 255
1.6322652185650912 -0.006865263870620019 5.126332150807614 255 255 255
2.1015696739040766 -0.30191304845852174 5.236627132188111 255 255 255
1.86739478984206 -1.8437271661841803 5.243074311503811 255 255 255
-0.24036499048871543 -0.2908119464841421 4.447193537216308 255 255 255
1.6225922531099468 -1.567682513070385 5.175488127635404 255 255 255
1.0363028360547764 -0.9579793484514153 5.030901907868597 255 255 255
-0.23796184503088252 0.010793951741087542 4.44086090919035 255 255 255
0.4869165108504345 0.8183181424012295 3.3809819618479806 255 255 255
1.6423566181712934 0.21095005917096832 5.1191941392877505 255 255 255
-0.18119302398472273 0.6905832104953659 3.238582888689599 255 255 255
2.2015012563262553 -0.23200725244698472 5.251653533911071 255 255 255
2.3359317178124006 0.6164812968105747 5.237701559534539 255 255 255
-1.5361331991534972 -0.9310153257077144 4.469613997931152 255 255 255
-1.7359745401489943 -0.44837260722927924 4.4145675499415615 255 255 255
-1.699520528379826 -0.9879045881533817 4.426088075083905 255 255 255
-1.1218085268970217 -1.071920181315602 4.549932197962997 255 255 255
-0.7426254182181313 -1.4553799339354108 4.656708501266982 255 255 255
0.22795166075957618 0.41419408132477675 4.355992448349551 255 255 255
-1.6523456549103503 -0.7918116371137911 4.433761716864656 255 255 255
1.4689275178896355 -0.9221445994265437 5.124048800346624 255 255 255
2.019416959393944 0.5610742814518114 5.183331735776002 255 255 255
1.864324930637018 1.089846278905694 4.373780678711916 255 255 255
-0.9875218349235667 0.33132221911786575 4.089265658770104 255 255 255
-1.9947984154966851 -1.2366061136057278 4.377490313410068 255 255 255
-0.25353901775586524 -1.1649695343062763 4.357423974152074 255 255 255
0.7653793596454553 0.7165818372224869 3.445224099896096 255 255 255
-2.2375060403270033 -0.4534185230891833 4.286038338093752 255 255 255
-0.5384867857932256 0.4085113456541039 4.192990186258504 255 255 255
-1.1412600087806175 -1.310822598621669 4.56344758238821 255 255 255
1.9580531821096847 -1.5134408869218667 5.243232458647368 255 255 255
2.1281745559131604 -0.3041959896140924 5.240769044634091 255 255 255
2.042575505458996 0.5098536476511875 5.189163146118914 255 255 255
0.976742736521444 -1.4061775369267466 5.0278513954535775 255 255 255
-1.6509731047617358 0.06809406880804342 4.412364370752855 255 255 255
1.5533783244686397 0.1891828542012514 5.09148273378871 255 255 255
0.8268686473350016 0.34388216357869994 4.4870621425396475 255 255 255
-1.712350371201045 -1.0697298035490854 4.416607915090454 255 255 255
-0.8313206290885352 0.07444408050129332 4.425190991062909 255 255 255
-0.0077935157829222305 0.8082930526631776 3.274098107597642 255 255 255
-0.003643992253126237 0.679578688329807 3.2811727225155414 255 255 255
-0.672900292456668 0.3237122423106543 4.159804040824187 255 255 255
0.6590676266454177 -0.4100845621884733 4.7634873502081065 255 255 255
-0.1412255240278532 -1.1652220769690531 4.379983824716815 255 255 255
-0.9250869697118234 0.3025618489287515 4.098469486167316 255 255 255
2.0833243505982235 -0.9749167250386697 5.256626247269671 255 255 255
2.275164675206098 0.8412948783283265 5.223991255815502 255 255 255
-1.2150760145234878 -0.9207556191367872 4.541949528043921 255 255 255
-0.4902396921655306 -1.1790044412699425 4.4299649868504005 255 255 255
1.293575266525619 -0.743950898478965 5.07508486232464 255 255 255
-1.1252981268194846 -0.7685618604508501 4.550860334884438 255 255 255
-2.1005826774856384 0.08160540758289772 4.310194482757694 255 255 255
1.9326386994899905 0.5593016831356229 5.182789743004027 255 255 255
0.6465065467005118 -0.29165208011621674 4.756703350357386 255 255 255
-2.1402295845634307 -0.8060031917390514 4.321352254328138 255 255 255
0.8025779491272076 0.3480921751588568 4.478811671557033 255 255 255
-1.528213983180977 0.2936011795316691 4.426948596845526 255 255 255
-0.31717307086274066 0.005900864485079432 4.423028546350686 255 255 255
-1.1644728691623605 0.7973161652051374 4.009952408383436 255 255 255
1.2037090361066656 -1.4225660045356914 5.080721438421302 255 255 255
0.41360264151211174 -1.1562959242198496 4.494231091353857 255 255 255
-1.708162764345989 -0.21381526509836024 4.397932062963784 255 255 255
-0.33868364124644623 -0.2907719094818547 4.425062072879891 255 255 255
1.8862475082036192 -0.7589777835389084 5.2092144359709724 255 255 255
-1.5611206258997077 0.1808789521163614 4.416220172398699 255 255 255
-1.5264516577585785 -1.1252803689108815 4.4764029379641705 255 255 255
0.9632150845922111 -1.523945771759277 5.037246134655848 255 255 255
-1.1963456128596996 -0.5992684398364544 4.519211041177634 255 255 255
-1.7136720327218489 -0.13255015565309958 4.391892303279966 255 255 255
-1.6372561530067893 -1.3569205077864595 4.458658508964653 255 255 255
1.9487649617515987 0.03923366220945769 5.179608079616879 255 255 255
1.5650247436039284 -0.9776825176137288 5.14386161336983 255 255 255
-0.11228829180672023 -0.7918829229011606 4.492230369713225 255 255 255
2.165204068281393 0.07119801252676132 5.235958162208881 255 255 255
-1.4539238825281473 -0.36966789395622696 4.455261030912844 255 255 255
-2.035492837970324 -1.1506160261086973 4.353476149676584 255 255 255
1.879781636523972 -1.7031349687613149 5.244466535601036 255 255 255
0.42216274164148837 0.3435724071952508 4.402588384053828 255 255 255
1.3274036235532143 -1.5027896723268561 5.121472842613362 255 255 255
-1.7359745401489943 -0.44837260722927924 4.4145675499415615 255 255 255
-1.9210591923373472 1.0018628086660986 4.21500266084569 255 255 255
-1.9568410882497396 -0.8217762555990309 4.359922570948406 255 255 255
2.3265020361177635 0.861767421533356 5.2356247872813 255 255 255
-0.2703126950305287 -1.1331677840624548 4.343774302300817 255 255 255
2.0592445086376814 -1.0963914379204185 5.250721128058173 255 255 255
-0.231245349017832 -1.1649059960756547 4.364388780423819 255 255 255
2.11994000990477 -1.7060596960453653 5.289380174344343 255 255 255
-1.7911482058815977 -0.890476490331896 4.404250520721286 255 255 255
0.5945003537802356 0.41625064759541336 4.433650727517769 255 255 255
1.4278933165175542 -1.1553909600295413 5.115996610180449 255 255 255
1.730895032726322 -0.12821144885915672 5.148806006870744 255 255 255
0.39629752682714087 -0.13060668707119388 4.584515478367222 255 255 255
2.126129579331029 -0.002445872106402987 5.236433795061786 255 255 255
2.126406539158178 0.8281386346990193 5.1840183559924204 255 255 255
1.922922384690667 -1.1251511316643827 5.215610920261426 255 255 255
-1.9197948876168736 0.795530996994581 4.317849095528124 255 255 255
2.217554958634332 0.6277228411310514 5.23239156581107 255 255 255
-1.1576348103990635 0.4044019446181875 4.045236654268357 255 255 255
1.8838129859245292 -1.7185224678959385 5.23921698231978 255 255 255
0.9916631909052546 0.4071034282198181 4.520070813168438 255 255 255
-0.06376226114375634 -0.49442803662371476 4.493860174822394 255 255 255
1.558189157646803 0.05420583727353954 5.105878250230576 255 255 255
-1.9748668992191138 -0.8217884475375475 4.354871186357457 255 255 255
1.4214981337373795 -1.597924580841486 5.139092017917041 255 255 255
-0.919003979710815 -1.2074334671135654 4.610123666639262 255 255 255
1.0842698810713622 -1.4309511810567332 5.0714920005352795 255 255 255
-1.1056104174049888 -0.6800018102235238 4.55477379736148 255 255 255
-1.7486514350859614 -0.43129539347463014 4.398988164768542 255 255 255
1.7775559976028854 -1.1474834530475835 5.198174245821899 255 255 255
-1.7296993435261077 -0.3633990944772186 4.400311330832342 255 255 255
1.2752885041027486 0.41098487721692295 4.586699721536095 255 255 255
1.5552293397486814 -1.1350387495413814 5.146534686005747 255 255 255
-1.6317553113346028 0.3793223716047637 4.390683692899039 255 255 255
2.253367660103507 0.8563872651040756 5.2283719371451625 255 255 255
-1.6372561530067893 -1.3569205077864595 4.458658508964653 255 255 255
0.31695569899841974 -0.2847272641995529 4.565458375556901 255 255 255
-1.7048812976288483 -0.7952385838520954 4.431706749186569 255 255 255
1.9668980297186047 -1.12001700279756 5.236658440023402 255 255 255
1.5588238962528642 -1.2729821185646149 5.149248223487129 255 255 255
1.8640503283623688 0.051024024060200616 5.163023857401466 255 255 255
2.0929013199332336 -0.736272065870475 5.246268580606489 255 255 255
-1.87329642376688 -0.4766920565953776 4.375035450500299 255 255 255
1.6456621578469828 -1.3197754651672118 5.1735685181011695 255 255 255
1.535077414210321 -1.5177008765064366 5.160849183611159 255 255 255
1.526366110918655 -1.1448883886976695 5.140235021779586 255 255 255
0.42701184063269926 0.6120590899024235 3.376785520360963 255 255 255
-1.5472348691896032 -0.25759179924625386 4.438930403043829 255 255 255
1.520060798374662 -1.576490491655926 5.154776572934291 255 255 255
2.263132604751288 0.8699412480438987 5.215067020836262 255 255 255
-1.3731815455460235 -1.095335065198135 4.508163267064566 255 255 255
1.5898454440256524 -0.9328576038219967 5.150625896828552 255 255 255
-1.4580059607378208 -1.3095662593362027 4.4988966094502985 255 255 255
1.575724496245085 -1.3108723131707467 5.176924152209934 255 255 255
1.7972623296708667 -0.5804624088047756 5.177146550590328 255 255 255
1.7501175754344003 0.2160111538388829 5.13633827664688 255 255 255
