ply
format ascii 1.0
element vertex 695
property float x
property float y
property float z
property uchar red
property uchar green
property uchar blue
end_header
-2.7080501523421523 -1.112207242799318 6.444016894395301 255 255 255
1.3147417231014171 0.7816347038015907 4.4699262386704905 255 255 255
1.364550099403961 -0.6118107582886442 4.568489098872001 255 255 255
1.247161002424375 -0.7914370072812212 4.640842427956415 255 255 255
1.5375718449048126 -0.8550173824759321 4.506390876904714 255 255 255
0.9803636067325895 -0.41599204283412644 4.735258106871813 255 255 255
1.1024610068351928 -0.9594829890032872 4.7275714843462096 255 255 255
1.0314476864219617 -0.6104841066757445 4.730110391187323 255 255 255
1.228669484162845 0.28975554080438753 4.546151166073458 255 255 255
1.3891979082931667 0.582582019248712 4.449258925783239 255 255 255
0.7417923045449629 -1.211450507820643 4.904945245367253 255 255 255
0.19952206591818747 0.25139146801056284 4.856918702285357 255 255 255
1.3908173966383004 1.1572548559643527 4.319520530344449 255 255 255
-0.47400418482550305 0.22334807962993733 4.8640030386670325 255 255 255
1.769877609105463 0.17053757206751372 4.304926025018684 255 255 255
0.9290768754518854 -1.6887333657368775 4.87416711245295 255 255 255
1.433781679429084 0.3364680170145077 4.444147004184925 255 255 255
1.4452156046845654 0.8842236528415026 4.397731835544486 255 255 255
0.9479487104214454 -0.41756253142330607 4.74138453192728 255 255 255
1.2904624724749818 -0.06446674878848617 4.558117446953313 255 255 255
1.3840852323222095 -1.5715488544650151 4.6528331776505185 255 255 255
0.576239373497211 -1.2980715024807934 4.996973784055532 255 255 255
0.8243440241570146 -1.2320143268203065 4.876378251269576 255 255 255
-0.47400418482550305 0.22334807962993733 4.8640030386670325 255 255 255
1.1443310056048221 0.6935669599109633 4.555927194922784 255 255 255
1.5120917822262208 -0.09011587502202315 4.446929558225539 255 255 255
1.4900475294285551 0.3802341373494208 4.426836415847882 255 255 255
0.6250099992571639 -1.4812281034251134 4.9979625340547 255 255 255
1.6106117931102872 0.0986773530516349 4.387515957827855 255 255 255
1.1788023923431104 -0.7719608966737055 4.672986225681261 255 255 255
0.6391062532079818 0.5098503678287817 4.322703334468711 255 255 255
0.04590947519292577 0.5588948857636666 4.600011923108897 255 255 255
1.5413424696282574 -1.3959985622835958 4.558496277167364 255 255 255
0.9887302441177473 0.4591780141322256 4.64647826294232 255 255 255
1.09824534463804 1.0676891350290298 4.559514110396018 255 255 255
1.8215943037265876 1.2466301644499096 4.096590891784636 255 255 255
1.6595139751424015 -1.013500511978209 4.451075637332818 255 255 255
1.7356225648707515 1.2602043137203796 4.140484626160981 255 255 255
1.5690499309568477 -0.9996299004687623 4.501901209699438 255 255 255
1.252254414291472 0.6885871812375859 4.511169961550601 255 255 255
1.1443310056048221 0.6935669599109633 4.555927194922784 255 255 255
1.2736957419511803 1.030930183382508 4.477139612700201 255 255 255
1.1882732445279276 -1.1452238279538414 4.696925919660626 255 255 255
1.7493923405119605 -1.047296560152728 4.417618444969667 255 255 255
1.5526844550442453 0.11391323838313461 4.4103865299785445 255 255 255
0.9510894283393994 0.5655800135664998 4.6609400962679866 255 255 255
1.1114187992777247 -0.17092019299055494 4.644029252375626 255 255 255
-2.3543175307462754 -1.5196554249994165 6.380688967549932 255 255 255
1.5997534020388169 -1.0145165703147474 4.486819793913241 255 255 255
0.7548538718538839 -0.9596233479179721 4.885919233870248 255 255 255
0.9942423128604957 -0.05189723421285619 4.687141187634462 255 255 255
1.2177668561107062 -1.1571630759603069 4.687595233699027 255 255 255
1.0883867842556243 0.42248586927094534 4.600942383467226 255 255 255
0.9490778161526771 -0.744010422482347 4.777216820375307 255 255 255
1.1422681286072054 0.22232602376687205 4.603802885851647 255 255 255
1.1411279802971577 -0.27211066441583315 4.659466792103368 255 255 255
-1.7791172484410034 -1.3868123488310062 6.122581156611475 255 255 255
1.1509314532570836 0.5612202479189983 4.578425009621459 255 255 255
1.5413424696282574 -1.3959985622835958 4.558496277167364 255 255 255
1.779192481353138 0.08207234135431372 4.3019676969807845 255 255 255
0.8125238636187432 -1.0622005971619337 4.860742172958042 255 255 255
1.2397439353424384 -1.2847601671237912 4.683469782638814 255 255 255
-1.1689169658160679 -1.4499520354768143 5.828175870050672 255 255 255
1.0919498937714829 -1.387520090309561 4.759408343275663 255 255 255
-2.7080501523421523 -1.112207242799318 6.444016894395301 255 255 255
0.4898270612685364 -1.552239368976313 5.058561677505154 255 255 255
-0.06463519444953114 0.5364981405375644 4.657828210060986 255 255 255
1.318337513144891 -1.173306569229611 4.63811606540706 255 255 255
1.2191943530875708 0.7242465536448894 4.523910041423224 255 255 255
1.0167038116574039 0.7112603051326432 4.61385728429428 255 255 255
0.7773871383693747 -1.6548055522525082 4.938787094568733 255 255 255
1.122792238860192 -0.979869519003625 4.7156111695884775 255 255 255
1.0348911753688856 0.710137110098845 4.613157569263091 255 255 255
0.5386358805821874 -1.7670090236328169 5.061737615037853 255 255 255
0.8427915067505252 0.3477607137600124 4.722371641737278 255 255 255
0.8720690358857239 -1.553149015133026 4.887846509563634 255 255 255
1.827241329971432 -1.4322592593114623 4.418587541452512 255 255 255
1.3519222544881795 1.0814367190204206 4.423866683060324 255 255 255
1.2904624724749818 -0.06446674878848617 4.558117446953313 255 255 255
1.2436964072879304 0.1166578604839901 4.557315030600778 255 255 255
-1.4553766309040579 -0.8091609973938299 5.897258271430628 255 255 255
-1.7375807660895939 -1.3619105788888175 6.087453134896657 255 255 255
0.9402319996792969 0.4124490321505339 4.682229797955486 255 255 255
1.3123395510149956 0.5564893014204992 4.500445081540597 255 255 255
1.4159784788189642 0.38729366461193887 4.458577383104013 255 255 255
1.277666964342031 0.4477069971558326 4.495042560059574 255 255 255
1.034136049538638 -1.5149611075254172 4.807947788089799 255 255 255
-2.1872265404906734 -1.1603662675318 6.271195519956338 255 255 255
0.9706220598004565 -0.7367618519483281 4.7536881357570495 255 255 255
-1.5684216769842436 -0.20916694922661802 5.894578157371305 255 255 255
0.5902592719414131 -1.4597333359023505 5.004847335382901 255 255 255
0.9696720957646334 1.0910368597699118 4.606802477002143 255 255 255
0.7226309516495593 -1.0342195413234716 4.905944335553208 255 255 255
-0.5141415327543776 -0.29590611142265477 5.131430044709474 255 255 255
1.0925834504549852 -0.32618366587245523 4.668304040637349 255 255 255
0.6200912830390763 -1.646339542268254 5.0223024362488715 255 255 255
0.9968461430429398 0.9768280613800984 4.603362116832238 255 255 255
1.30177167532744 0.3556888943962275 4.506213774069371 255 255 255
-2.1025063640631214 -0.8995024445849603 6.209190117042698 255 255 255
1.251569809665735 -0.07967545338854104 4.578966926595405 255 255 255
1.4883471547480236 0.21475550563854295 4.428666330785677 255 255 255
0.6756566036869495 -1.479517289578058 4.977050625864124 255 255 255
1.3659246704118548 -0.9658184005802435 4.5975717922901 255 255 255
1.1355441617348265 0.34475173946022286 4.583300917381236 255 255 255
1.528974482633328 -0.8036100095339553 4.505521710725287 255 255 255
1.1105969900793662 0.5493917120128599 4.583359007897776 255 255 255
1.6540010121100626 -1.1999157185006737 4.487118744101537 255 255 255
-2.643605614332759 0.5704022122492295 6.274316954092365 255 255 255
1.7886962047833952 -0.5142629730626016 4.349119965493304 255 255 255
1.6916639874992083 0.15876630082764995 4.340233377466649 255 255 255
-2.3635027099640924 1.2633840177053264 6.121208641893076 255 255 255
1.0774889072058516 0.12347759834614307 4.6352733072643115 255 255 255
-2.3608712597496697 1.186876701610661 6.12806404962943 255 255 255
1.5120917822262208 -0.09011587502202315 4.446929558225539 255 255 255
1.2714241872328655 0.841570935007726 4.493346132292825 255 255 255
1.0100527010931595 -0.7440965454843592 4.753064621349631 255 255 255
1.3133578526621574 -0.07556308095331082 4.548087817422123 255 255 255
0.4729702349515537 0.2735231895833646 4.735438483168401 255 255 255
1.0497511177955512 -1.5185504481551808 4.79850085924033 255 255 255
-2.3735426494493095 -1.762935510024552 6.415722747605071 255 255 255
0.4729702349515537 0.2735231895833646 4.735438483168401 255 255 255
1.6540010121100626 -1.1999157185006737 4.487118744101537 255 255 255
-0.37894924950908526 0.6888714367433179 4.787466660281084 255 255 255
1.426862747217976 -0.9921461662162047 4.567085622303711 255 255 255
1.8175577629135473 -1.2428808423756925 4.404090776888924 255 255 255
-0.4008744127539476 -0.01121398122626748 4.9842321271581325 255 255 255
0.6453915345747837 -1.4843128119892144 4.984099173801585 255 255 255
0.8449433409557402 -0.7315130983181866 4.8308910751406735 255 255 255
0.867468738238013 -1.2383040550492823 4.856974070376034 255 255 255
-2.3708801812242575 -1.2998874082797212 6.372259518632438 255 255 255
1.0482075546767031 -1.1673779441860788 4.7694771448509465 255 255 255
1.5125944265160987 0.11103207758584621 4.430817143799207 255 255 255
-1.3915476399865494 -0.6867674111952068 5.858182396581414 255 255 255
0.47289101668217687 -1.4661164800129383 5.062214367761979 255 255 255
1.229998348299478 -1.5467042372385267 4.721337126739834 255 255 255
1.2632221721343608 -0.7940011441839624 4.632356030521383 255 255 255
-2.3762683747951656 -1.6039930814412187 6.3982402211236975 255 255 255
-0.39887820388084794 -0.5714699041968253 5.076837443463422 255 255 255
-1.9601756310088878 -0.6347303082095507 6.120508051955404 255 255 255
0.6363128362209497 -1.2238771978221539 4.962861682424848 255 255 255
1.123932287231612 0.742337493333296 4.560311438291328 255 255 255
1.7671408017140646 0.9968259174956651 4.241283933800538 255 255 255
0.7160277375377635 -0.8043925033570243 4.882212763625493 255 255 255
-2.3490551648251494 1.0295099448787084 6.140228714428393 255 255 255
0.4898270612685364 -1.552239368976313 5.058561677505154 255 255 255
1.611071415271374 -1.0303496730267432 4.484191476506018 255 255 255
-2.656425564897053 -0.36846819257751023 6.368963057265545 255 255 255
1.174857592897618 -1.1605010615307014 4.710764300110877 255 255 255
1.3964894214371146 -0.7978174781598123 4.56917270687537 255 255 255
1.4507332474280663 0.5478211939882143 4.438917924531794 255 255 255
-1.595210902932544 -1.387131693870453 6.015858237097048 255 255 255
0.22903372730462143 0.6079516182215621 4.507812519766742 255 255 255
1.0806101689226792 0.403402603358371 4.620951290047979 255 255 255
0.7289628202798749 -1.7492638061524366 4.966090157913793 255 255 255
-0.8545172969254283 0.7885568464955749 4.93576375062814 255 255 255
1.3604166002917253 -1.3022357769011703 4.631308790983008 255 255 255
0.24567273479099325 -0.17911836957319466 4.8748899554982055 255 255 255
1.6087806285844801 -1.5835295048371176 4.536836007526154 255 255 255
1.8343862858781619 0.3133824746599196 4.261875223180668 255 255 255
-0.25124673122651464 0.5731314493006967 4.741402339906114 255 255 255
0.9946999815048045 0.6158403857564543 4.631300640044539 255 255 255
0.9777473629338368 1.0847399958370973 4.603500795953222 255 255 255
1.6582495848771157 -1.406037897145704 4.49838947986344 255 255 255
1.3132010189694014 0.8536305342246746 4.462147295191119 255 255 255
1.1037147150505944 1.0330926502275328 4.559674220189148 255 255 255
1.1210763177203096 -1.2555810942321932 4.74827926594492 255 255 255
-1.8971258637069441 -0.4755289098157265 6.0742620547763995 255 255 255
0.5640812819098768 -0.5455797160802062 4.9308475138242756 255 255 255
0.7417923045449629 -1.211450507820643 4.904945245367253 255 255 255
-0.9926068340952942 0.7233877134780612 5.072448765894801 255 255 255
0.6229498621790861 -1.6753575042942221 5.015031242164269 255 255 255
0.2580411415316184 0.650249745183471 4.493076655312257 255 255 255
1.37184742900513 -0.45706964753805424 4.553444188100355 255 255 255
1.4445467129354952 -0.46361365140928645 4.523191234818064 255 255 255
1.5879209245078003 0.3390972332306794 4.375108418638001 255 255 255
0.2596476812094348 0.24670764790084904 4.838385697453519 255 255 255
0.691137665568289 -1.3096066395129686 4.951399243806444 255 255 255
1.3840852323222095 -1.5715488544650151 4.6528331776505185 255 255 255
1.4099858163248464 -1.549295771391343 4.622526399773184 255 255 255
1.477336953736326 -0.8336369171526965 4.545076336711878 255 255 255
1.5908769898659032 -0.612144340353263 4.457494817478787 255 255 255
-1.188575084628462 -0.9339926756618567 5.789841007341664 255 255 255
1.457407383003055 1.028846747217399 4.407141462110719 255 255 255
1.4611866364459292 0.4281333351451197 4.418613912206758 255 255 255
1.1411279802971577 -0.27211066441583315 4.659466792103368 255 255 255
0.7941721087218371 -0.7291930434245819 4.846582076997625 255 255 255
0.9508077479368664 -1.2500928687236001 4.816278933558513 255 255 255
1.4034755035124427 0.5730117388787761 4.450477385553101 255 255 255
1.0552681917058138 -1.159325393723642 4.764538379149326 255 255 255
1.3021210579260714 -0.9731308781778467 4.630966697930012 255 255 255
1.0296218205134524 -0.9412757721390375 4.752397318005309 255 255 255
0.5947232952993028 -1.1950499518474138 4.990852974648863 255 255 255
-1.7560919381150888 -0.7917893463577679 6.041636062384988 255 255 255
1.5377871934445524 0.5846488548926494 4.38133882567771 255 255 255
1.4470723223096646 0.5613395898287559 4.434391533283882 255 255 255
1.6857407365020491 0.5284659054737185 4.316543575114478 255 255 255
1.1681824241981817 0.8311104800247087 4.54914293974698 255 255 255
0.9329176604176458 -1.5561272445017502 4.8538928599516415 255 255 255
1.79753828502719 0.9685403216711647 4.227298572222914 255 255 255
0.6863905423299037 -1.7100226009765191 4.987559331180134 255 255 255
0.7949365770470476 -0.7138925681464169 4.841173695866235 255 255 255
-2.2428404344445627 -0.9222182604064567 6.270870371700665 255 255 255
1.3323194711506423 -1.3536664994817624 4.64457162600162 255 255 255
0.5712787093470768 0.6029805580811318 4.351127763087138 255 255 255
1.853795814394635 0.1913426065381557 4.266083343889085 255 255 255
1.2369520340422107 0.7972025266527749 4.502186627817604 255 255 255
1.3089565530998746 -0.05086910855993929 4.54506751189416 255 255 255
0.45385461792415555 -1.1988983365315304 5.038649912651324 255 255 255
1.7225789584424698 1.271811421581172 4.149114037362292 255 255 255
-2.370423172223089 1.056228784748306 6.14279257235879 255 255 255
1.6342182523188191 0.3671660040491629 4.357250183591512 255 255 255
1.2816083444703161 -1.1733325994080224 4.6545383746374975 255 255 255
1.152776390331963 -0.06443135565257059 4.6161474154521684 255 255 255
-1.5619666262298966 -0.37202505016078197 5.906622672254022 255 255 255
-2.6681011623861832 -0.9552450840290977 6.42541493900677 255 255 255
1.277666964342031 0.4477069971558326 4.495042560059574 255 255 255
-1.4461888567883878 -1.4002048499645772 5.9604979435476135 255 255 255
0.9385759074045527 0.382624141472743 4.675194048431931 255 255 255
-1.2935684917682473 -1.820542694418765 5.92977975885455 255 255 255
1.4624057865545455 -1.4231814839421657 4.585441885055231 255 255 255
-2.028662109051159 -1.1887603351828326 6.182137232283933 255 255 255
0.9767485194073311 -0.08136422539930142 4.703187554519866 255 255 255
1.873817946170052 1.161455524516809 4.081081474004753 255 255 255
0.32740279747608125 0.4891867695634454 4.4774927882803075 255 255 255
1.5738075703324046 0.3377807742423439 4.380677061410679 255 255 255
-2.0154829534299004 -0.9448838032349653 6.166101997617255 255 255 255
-0.440670125057857 0.1914591757849058 4.875000091220784 255 255 255
-1.8214869325544527 0.4661312389009707 5.966447575394897 255 255 255
1.3455728536018134 1.0109645579744102 4.441591149095526 255 255 255
1.0815088465546063 0.10955269408876732 4.63933674617134 255 255 255
0.6835190207566457 -1.4164063123950976 4.955907058542756 255 255 255
-1.7095788954491722 -0.03401497567241788 5.950925677960537 255 255 255
1.194627255464562 -1.4743343976632026 4.726929783202717 255 255 255
1.0986831642834047 -1.1377280014691173 4.731584679303588 255 255 255
-2.610302522124109 0.7462490287972384 6.304952086399254 255 255 255
1.6423542046184154 0.20476378228606434 4.372758941950171 255 255 255
0.668697654790667 -1.4973273599195818 4.971361968759079 255 255 255
1.0221756119500718 0.45923042165537564 4.639250936950297 255 255 255
0.9968923811734273 -0.4054945050127827 4.725680972918664 255 255 255
1.352522073530611 -0.4499035718938614 4.568057950992957 255 255 255
1.079776188249471 0.6211721388891339 4.591678419264715 255 255 255
0.2596476812094348 0.24670764790084904 4.838385697453519 255 255 255
1.15086381661254 0.5480649224718095 4.579047868912893 255 255 255
1.4328987626694827 -0.2734912078985529 4.50740949541589 255 255 255
-1.7604238398704324 0.23798666872894464 5.953741016020697 255 255 255
-1.6931222757495141 0.3452389685328886 5.910485685935538 255 255 255
1.3446792640110006 1.0267461749740705 4.4429162022077415 255 255 255
0.9312244987900832 -0.2452776962514339 4.753562075501943 255 255 255
1.0809664265999368 -0.7669041440829046 4.7226450202092725 255 255 255
0.999371766553415 0.26103367455467164 4.672475211829388 255 255 255
1.1215188171373422 -0.210957006660671 4.643046898961786 255 255 255
1.2794143820522865 1.0837589284854263 4.460790431541156 255 255 255
0.6762849720528079 -0.5474869058003892 4.879498162937458 255 255 255
-2.3644645539579763 -1.4258338714588432 6.381810982103519 255 255 255
0.41531687290493297 -1.1745973684288065 5.06377816781283 255 255 255
1.8198902346153012 1.1793484500870683 4.10889536414342 255 255 255
1.2217220157634776 1.0300315521249228 4.5041484017529285 255 255 255
0.40516689207598394 -1.2795358513603525 5.0776702286014395 255 255 255
1.5563801014159633 0.6960137462483164 4.363301507914745 255 255 255
-0.1854206836762237 -1.8283729457135844 5.400782507128833 255 255 255
1.2572453601653737 -1.090574224676867 4.661158931166954 255 255 255
-0.5425882294916502 -0.4751476201013711 5.140239856712087 255 255 255
0.3553654172620515 -1.1627489430145344 5.088604541268666 255 255 255
0.5835183582285371 0.6343239601330136 4.343862201813631 255 255 255
1.2709268318513804 0.10353699801863411 4.5515291466922605 255 255 255
0.9548250398086355 -0.02546206306929816 4.710132775573898 255 255 255
1.3358851650369188 -1.2929342717045145 4.643424182789655 255 255 255
-0.33214939466310295 0.5520891561064041 4.775846470226611 255 255 255
0.938910107159042 0.8537062555558634 4.641688185628147 255 255 255
0.4104204015878058 -1.5311058153497947 5.09950394886582 255 255 255
0.0032345291866584837 -1.7231174662066522 5.313043358946947 255 255 255
1.487652711013928 -0.8022703016344972 4.526241177757753 255 255 255
1.5187838868912784 0.6847746327116996 4.382868396914641 255 255 255
-1.1789473117314195 -1.4220187618770734 5.829590967911981 255 255 255
0.4709955493337875 -1.2602559047312025 5.031037600368785 255 255 255
1.053110033821247 -0.5899047562458712 4.721936317211966 255 255 255
0.9504861815030632 0.5797025398862002 4.657813716264303 255 255 255
1.4653952085630617 -0.8175675006000193 4.543237581253405 255 255 255
-1.9772916023311717 0.1796184873903239 6.050584138143692 255 255 255
1.6688075864124503 0.09077550104234132 4.361147370510021 255 255 255
1.6341521336190021 0.10956839007613849 4.377383118697334 255 255 255
-0.5032466027995521 0.5452601572947522 4.853980258260956 255 255 255
-0.35275272873724056 0.2617870542930852 4.890839037343914 255 255 255
1.6862806497330558 0.6666713779287781 4.298479504899074 255 255 255
1.236636822366796 -1.2346354340407033 4.678682335167014 255 255 255
-1.5684216769842436 -0.20916694922661802 5.894578157371305 255 255 255
1.8629578000033873 -0.19173112715109183 4.289552323689209 255 255 255
1.6110076357260623 -0.6294202527950615 4.451898032282384 255 255 255
0.9859375908709718 0.4703906970039176 4.649353004177209 255 255 255
1.8312727969825737 -1.3597878311323566 4.409010228627423 255 255 255
1.0400998077755204 0.4591010875114381 4.6286316600120525 255 255 255
1.4176383462873625 0.11085920359840752 4.489438520751561 255 255 255
-0.5522013036897994 -0.45074065835324745 5.156807351015835 255 255 255
-0.37604841886873686 -0.28289887873635533 5.074534324992475 255 255 255
1.2342132248763051 -1.1872930935441843 4.675141466682286 255 255 255
1.421268410356929 -0.06523849986663241 4.487813609325127 255 255 255
1.7996200190936429 1.0033082048308384 4.227922522704421 255 255 255
1.853795814394635 0.1913426065381557 4.266083343889085 255 255 255
1.4407797200711638 0.21537174387380856 4.45458898345156 255 255 255
-1.9241133750293715 -1.345460258950351 6.169241803396779 255 255 255
1.1634635591148925 -1.2899733015422012 4.729215890258728 255 255 255
1.0470409723162364 0.9008962235502264 4.59111624067974 255 255 255
-0.16285285274459918 -1.832033811676411 5.393981905241487 255 255 255
-2.6109481979404334 1.197240373378298 6.251314560914664 255 255 255
1.4193608619449998 -0.04412088316034047 4.490230399457632 255 255 255
0.9784557505868187 -1.0804254932561463 4.7945434977844315 255 255 255
1.318337513144891 -1.173306569229611 4.63811606540706 255 255 255
1.2277383464303206 0.7510881411564707 4.509190476445045 255 255 255
-0.3859628826551541 0.07479154121930512 5.04883045055042 255 255 255
1.2342132248763051 -1.1872930935441843 4.675141466682286 255 255 255
0.9550327488956466 -0.40259463755132 4.7389118106846295 255 255 255
1.0777101616658527 -1.2704047317254097 4.761663494079521 255 255 255
1.2674318602750365 -1.1041530605512808 4.6565720024203525 255 255 255
-0.4725658618610159 0.5511948468713961 4.837104836303745 255 255 255
-1.965289050584708 -1.8064577449646804 6.23020027948499 255 255 255
1.3744841046976584 -1.41258641664148 4.626669769494967 255 255 255
0.6045618905882634 0.6019915350700575 4.332968568598613 255 255 255
1.1812640866896327 -1.1037369552934633 4.704502648328287 255 255 255
-2.252102734867126 -1.4741194932634363 6.326812438264166 255 255 255
0.7147816641044078 -1.6616397279954336 4.966891854999851 255 255 255
-1.0700987049323492 -1.8394535345790628 5.82802268649524 255 255 255
1.2799998530159586 0.30672270588077133 4.519611292189483 255 255 255
0.5837214620784618 -0.36773425260556436 4.913258272339826 255 255 255
0.036392729130318 0.5470895638198868 4.605560410225908 255 255 255
0.7687059452916235 -1.221984856321771 4.902102961120794 255 255 255
-2.641919392179794 0.6064379246175214 6.273359872519513 255 255 255
1.6582495848771157 -1.406037897145704 4.49838947986344 255 255 255
1.114880272324908 0.48129269787320716 4.593063066017607 255 255 255
1.553017709151999 -0.6105320724964933 4.476773993583047 255 255 255
0.9779877252613421 -1.4902075202906429 4.828245959516816 255 255 255
-1.4553766309040579 -0.8091609973938299 5.897258271430628 255 255 255
1.1582288689805513 -1.1368053149359976 4.714037523302168 255 255 255
0.5369640823572188 -1.2011296346211198 5.009798331373168 255 255 255
-0.38217052714166355 -0.013283504357488325 4.99118991977145 255 255 255
-0.23120509411165752 0.446788473650638 4.83845459081067 255 255 255
1.5441932764844002 -1.3844312659465692 4.5503261535847805 255 255 255
1.240073936265517 0.105600905774416 4.566835433632377 255 255 255
-0.38216135643559956 0.06813502217854238 5.049960823372715 255 255 255
-0.477466186933324 -0.5344388529400664 5.113603344000187 255 255 255
0.7441567067437265 -0.6958447341610027 4.865695041846798 255 255 255
0.6887089840715377 -1.735151913090544 4.988287512808555 255 255 255
1.5426610423881026 -0.0974448426372011 4.438353849880891 255 255 255
1.5622760939618427 0.8155820774115164 4.362754855873859 255 255 255
0.9622296046995898 -0.12873586383901608 4.706508542653636 255 255 255
1.14102123478069 0.2338396138480484 4.605523200130879 255 255 255
1.089078876342094 -1.205256981530755 4.7451850136353215 255 255 255
-0.4599555384938964 -0.5657244706551572 5.102388108180874 255 255 255
1.4113103744404432 0.8237418870869028 4.422824725586684 255 255 255
1.3710527367200758 -1.3752080604300303 4.632923248489419 255 255 255
0.6163888006692894 0.26051038508293695 4.55043434712808 255 255 255
-0.33789758119604163 0.7530870494399514 4.685587074093935 255 255 255
1.5802202912768972 -0.10514937545176835 4.417479539834504 255 255 255
1.0135493631274979 0.9863714355827221 4.598275899532207 255 255 255
0.7994088430980573 -1.6617482680803428 4.9291638871432815 255 255 255
-1.953941821947622 -1.8213591330648755 6.220041013609603 255 255 255
0.305288181048751 0.6060988168329661 4.476010198583541 255 255 255
1.7048389939997217 1.0173792822670265 4.275278573943869 255 255 255
0.8624813968563279 -1.716642879610461 4.905517013937737 255 255 255
-2.3413790523282274 1.276180415045895 6.1177191192303715 255 255 255
-2.149078089909658 -0.007436461768922276 6.153551507460544 255 255 255
1.3617406563907954 -0.38264786704571296 4.548032764710127 255 255 255
0.5734803019816322 -1.460786988762256 5.016350186759298 255 255 255
0.9757557399595307 -1.5037500536821147 4.824139259172494 255 255 255
-0.5679974998359143 -0.4239604830570444 5.154285312523202 255 255 255
1.0706669767496702 1.0590139445651707 4.56671760789299 255 255 255
0.5500803038166924 -1.0882739410340636 4.9955239995473 255 255 255
-2.635967918492029 1.2250722387321966 6.221962717520228 255 255 255
-1.6911283559502273 -0.3623559961907093 5.978207434822179 255 255 255
1.3006716032832981 -1.3580519523625194 4.6618104273349825 255 255 255
1.4472611043996675 0.09381831345481777 4.470465404237939 255 255 255
1.5806321748486156 0.9874118756913063 4.33240938773161 255 255 255
1.1180946173087885 0.8451343893121853 4.572341502631181 255 255 255
1.6393774237165502 0.6537765717581944 4.328920063263261 255 255 255
1.3666240924048647 -1.5154212142423855 4.643763794167384 255 255 255
-0.8573577305874219 -1.7490829512253432 5.717533551311638 255 255 255
1.6042482332706784 -0.8112154347442242 4.466640670503594 255 255 255
1.4703653640250787 -0.9890501884440338 4.550864194330503 255 255 255
-0.26612734370898017 0.6502935079994977 4.739634656961727 255 255 255
1.2369520340422107 0.7972025266527749 4.502186627817604 255 255 255
-0.7613360186933037 0.5954918554959405 4.976369202688143 255 255 255
0.37058733884081246 0.5213058125855199 4.447300903686597 255 255 255
0.58252033201842 -0.3781353234484118 4.910160642847024 255 255 255
1.5992820728962867 -0.12133644685953358 4.409350272087037 255 255 255
0.5141194119571009 -1.308996162368808 5.030454867606924 255 255 255
0.27514377042056226 0.13816852579819092 4.8252791251985165 255 255 255
-2.1569784394278133 -0.45257365115985076 6.187662558361844 255 255 255
1.4269760032705439 0.21787497242033924 4.457511755241917 255 255 255
0.5809235698648819 -0.9356415141296412 4.961086126880432 255 255 255
1.7438215085329043 1.0022576030372001 4.253891717604357 255 255 255
1.033710915779336 0.2419240823146942 4.651027868025811 255 255 255
1.281696597371164 -0.43377689817947895 4.591076816336771 255 255 255
1.4540034879019894 0.3840612748984249 4.439492069685316 255 255 255
1.0430051715191064 -1.2602305357469348 4.779204173497107 255 255 255
-1.6371630091486415 -1.3920265588976901 6.044734925470069 255 255 255
-0.5037075400188523 -0.5181186334188348 5.123608541480534 255 255 255
1.3808430141161971 -0.10300808152607781 4.517687375918874 255 255 255
0.8176118286870501 -0.7483911165682989 4.837657922883277 255 255 255
1.6219825418818317 0.11873374248739428 4.378476497742282 255 255 255
1.4624057865545455 -1.4231814839421657 4.585441885055231 255 255 255
-2.213112907208512 -0.7991141205482127 6.253605001425104 255 255 255
0.6366525124087327 -1.3044804928717606 4.969679096506694 255 255 255
-1.9143413137793062 -1.3328899801741367 6.164740045599946 255 255 255
1.4006669504822027 0.5488266832978342 4.449713178424617 255 255 255
-0.03858725231483535 -1.7440095501597936 5.334178029103107 255 255 255
-1.672625005824243 -1.2329643714458411 6.046808212614227 255 255 255
1.5727060897473681 -1.007388732787515 4.497990153462053 255 255 255
-2.6430232545861987 0.7033751437074333 6.2572474375997285 255 255 255
1.1274853761475152 -0.7547878979060926 4.687656574053905 255 255 255
1.0633052402722916 0.7082291811601338 4.601818982686054 255 255 255
1.144818357697894 0.26601360414129643 4.583811618358054 255 255 255
1.4166258706651351 1.0295213711702502 4.4071817334282875 255 255 255
0.44168009924898805 0.8398503155315046 4.371809883875231 255 255 255
1.1163458279242668 -1.6314613451324578 4.772177525836595 255 255 255
1.3862302469526222 -1.391639657283787 4.619181975381771 255 255 255
1.5390539715741003 0.9659490523003248 4.347164897527122 255 255 255
-1.1238226164820304 -1.4667901935194239 5.810184287882102 255 255 255
1.4340048295959649 0.7100251205799831 4.422154928579858 255 255 255
-2.673257755915973 0.5903488842695395 6.269513500762959 255 255 255
-1.8125411749247111 -1.0434555171042008 6.085978974089763 255 255 255
1.4252118410584842 -1.568008013161185 4.628682677338485 255 255 255
-1.8599861719917157 -0.020654231721698193 6.021018442094249 255 255 255
0.8465811221010131 -0.40408555603277746 4.808053701716899 255 255 255
1.0232173293388893 0.6201280133863634 4.620110656770432 255 255 255
1.2886843978108973 -0.788659733897345 4.615384296473926 255 255 255
0.7458342107605331 -1.6657853898632726 4.954393494318889 255 255 255
1.1118448947776394 0.36364018683699295 4.598428558782352 255 255 255
1.188043287290911 0.2956941021846178 4.572062369578137 255 255 255
1.188043287290911 0.2956941021846178 4.572062369578137 255 255 255
0.5212694389808573 -1.3522183926372633 5.028548417353094 255 255 255
1.052490789152155 -1.094252712162647 4.760396935345715 255 255 255
0.29526663769895917 -1.4328558156851683 5.141101272227511 255 255 255
1.2194671133656798 -0.07933292822929038 4.599459201580011 255 255 255
1.1522887448616794 0.37385935300364287 4.582224416183326 255 255 255
1.1768593834452385 -0.787089061622363 4.67532398082445 255 255 255
-2.3603769324867097 1.16575589963806 6.133255151148434 255 255 255
1.338134002380926 0.40408168585180915 4.4926551392459135 255 255 255
-0.41892045041570863 0.18555853980383494 4.892770699907643 255 255 255
0.5731144079307039 -1.3527218748561323 5.002134248866778 255 255 255
1.3615791391664014 -1.2747806635978507 4.628969355166723 255 255 255
0.8666553740673063 -0.7505080204703282 4.8153434329695175 255 255 255
0.7912963328046448 -1.7321812297197476 4.936976941567018 255 255 255
1.1916225502425306 0.23779738665854486 4.5839428190805505 255 255 255
1.584026257301005 -1.5961691811039656 4.555765067381988 255 255 255
1.40428385425396 -1.352417296457406 4.6103048537172935 255 255 255
1.5512755174520754 -0.47407592301462875 4.468603983195657 255 255 255
0.33336620378231674 0.6193104644011511 4.455993028464956 255 255 255
1.5179295049504604 -0.8558619407707339 4.5117408930739655 255 255 255
-2.618759754391381 1.2146562321048398 6.230471187372899 255 255 255
0.7518445903304536 -1.6254677998274532 4.93846641421349 255 255 255
1.1691793823357146 -0.5909242973222282 4.658902561538646 255 255 255
-0.2101127024106063 0.5638749729084279 4.714958585424658 255 255 255
0.8874860064158623 -0.7337545961851021 4.807796600671769 255 255 255
-1.7683863033470097 -1.146048802305242 6.078062313805619 255 255 255
-1.5991092449947888 -1.652630946344976 6.043687414174795 255 255 255
1.2007780507931223 -1.4032391784491518 4.717183035056134 255 255 255
1.6933563394144402 -0.8458441410665167 4.42436734205546 255 255 255
-0.477466186933324 -0.5344388529400664 5.113603344000187 255 255 255
1.0540324576047682 -1.7039876098166913 4.816594851787971 255 255 255
-0.42181971720240874 0.2617762418018421 4.886912071778528 255 255 255
-0.07153076064998197 -0.3829853963902242 4.827166718911426 255 255 255
1.4434914060511057 -1.4366415528922165 4.589485469839072 255 255 255
0.7276525918404116 -1.1942811227810552 4.924243578807366 255 255 255
0.5446314330826526 -0.8284090517046657 4.964520882561071 255 255 255
1.1677870047132344 -1.0938550961185616 4.715042489753387 255 255 255
-0.7280744763219633 -1.8014647798762629 5.659606374002034 255 255 255
-2.627873589293773 0.7447496102536126 6.260090763550387 255 255 255
1.3710527367200758 -1.3752080604300303 4.632923248489419 255 255 255
0.713086581133475 -0.3992347501055569 4.8547558785596 255 255 255
0.6150781414486277 -1.6613074478750511 5.011650439911027 255 255 255
1.6794142186997365 -0.10221883552078329 4.370454515660027 255 255 255
-0.5614566032887451 -0.4869734451272467 5.142572156792072 255 255 255
1.098383784752086 -1.1547500534451876 4.745826941910602 255 255 255
-1.1634074113595436 -0.5418336982590194 5.747280020008136 255 255 255
1.0917976641732874 -0.22583295783459484 4.659058211339148 255 255 255
0.9743277262336018 -0.9452852189817345 4.803108362387512 255 255 255
0.1802714446649879 0.2333548642623883 4.865061704302594 255 255 255
1.5087196073756977 0.6978134371489364 4.391384689650814 255 255 255
1.027935480860902 -0.5939992904440844 4.744506649825301 255 255 255
0.3825943283663058 0.6069233308720318 4.44163002994495 255 255 255
0.24182427329695774 -1.75231244382627 5.205664981041933 255 255 255
-2.027973039127325 -0.4757924537328047 6.1254657429066715 255 255 255
-0.2929824829029429 -0.5118786434890407 5.026259156223422 255 255 255
1.0399580601188447 1.041374179273866 4.589293660966047 255 255 255
1.469244626691261 0.7134571376995272 4.410954552227778 255 255 255
0.4555463895373996 -1.4531293360620139 5.071424982330751 255 255 255
1.826089176984105 0.6764121042160934 4.234660660182699 255 255 255
1.288609088667213 -0.42113806139825316 4.5910107970065095 255 255 255
1.1139766206800583 0.3897325011591451 4.605087020267876 255 255 255
0.9877687760201005 -1.4448704209410146 4.81863939819343 255 255 255
0.7288036293770975 -1.0494245946603449 4.90787736159441 255 255 255
-1.8443362786712862 -1.6270637715094878 6.1616005495170345 255 255 255
0.9312244987900832 -0.2452776962514339 4.753562075501943 255 255 255
0.9939338175015936 -0.996447464135579 4.778719365900566 255 255 255
0.1841351005009625 -0.08696228855037981 4.8878815398292925 255 255 255
0.8800763588996952 0.2722007843399508 4.723131166032794 255 255 255
0.8991183010226117 0.15502522445831285 4.7242251207221235 255 255 255
-1.330104788003394 -1.0755424349207232 5.869220589683163 255 255 255
1.0081796353034436 -0.022094137616867175 4.682628840449256 255 255 255
1.625341939122798 -1.3999802949908624 4.529458241296417 255 255 255
-1.4844827495406832 -0.8411991229263815 5.918153881160192 255 255 255
1.0034397337139613 -1.0838067739148673 4.782530634590639 255 255 255
-1.7804914490782575 -1.0487439269216625 6.078240316840027 255 255 255
1.827241329971432 -1.4322592593114623 4.418587541452512 255 255 255
-0.4541436256821617 -0.5421730263955546 5.103864648867848 255 255 255
1.6522470378580574 -1.237568883258359 4.47910750688429 255 255 255
-2.684710410230642 -1.6039082106774454 6.496526468415925 255 255 255
1.0930980097151697 -0.3591136548834916 4.667601937157639 255 255 255
-0.5225201859079106 0.5784936047611505 4.854402132359313 255 255 255
1.1852334296356006 -1.204553358747884 4.698381970063767 255 255 255
-1.4272690330913704 -0.87682287154981 5.899280014393896 255 255 255
0.8911560446311536 0.13585867081638914 4.7336550929484895 255 255 255
0.9087801624354594 -1.514224312482915 4.869714870165857 255 255 255
0.46636812250469967 -1.7889479859043986 5.103717029780571 255 255 255
-0.06529017722856732 0.5519095866484232 4.652909035116817 255 255 255
0.6199520347119045 -1.0834724507978994 4.956454798953882 255 255 255
1.1361141864240465 0.5346044634987017 4.583119307379538 255 255 255
0.9358681099574463 0.379710705853337 4.673965769532177 255 255 255
-1.8413754587873896 -0.4801303526500138 6.044676946670832 255 255 255
0.9513349704332809 -0.2635355999680035 4.731681925889122 255 255 255
-0.7045091552134531 -1.780882835045924 5.651526656421934 255 255 255
1.2057883374348055 0.8418850483262744 4.533966447141815 255 255 255
1.5062207310102473 0.9226064131180015 4.368631409375817 255 255 255
1.8221220770475863 -0.3529009853315376 4.318379362807796 255 255 255
0.3385698870027693 -1.5139110405242593 5.126647062282899 255 255 255
1.1121717049499895 -1.407333496414756 4.749052865412679 255 255 255
0.1648718394266428 -1.605207057565966 5.222991437658516 255 255 255
1.6886342706589454 0.9876144657168183 4.2824074563830195 255 255 255
1.421268410356929 -0.06523849986663241 4.487813609325127 255 255 255
1.479078488664203 -0.07944993132026004 4.474869645997777 255 255 255
1.7477977839280596 0.7976122114130776 4.2644184990238125 255 255 255
-1.0077206393198446 0.008374232104861821 5.451073822825905 255 255 255
-0.6717403515822169 -0.06790610001255712 5.176910299132693 255 255 255
1.1028291043199083 1.0497324915107615 4.569626111742854 255 255 255
-1.1818636842063333 -0.5438429881756619 5.756271255213122 255 255 255
1.0680616839991535 -0.9460567028692606 4.735753861131163 255 255 255
1.1208155995337172 0.6865102325008511 4.5654027282639165 255 255 255
1.1961184045184006 -0.0999929553664158 4.597565926476151 255 255 255
0.6096993145839938 -1.3033552432907125 4.983687672615074 255 255 255
-2.6403855335307487 -0.3649750258121511 6.374630353197269 255 255 255
-1.3069961640846224 0.5454922102127202 5.323396074890583 255 255 255
1.0973168439060328 -0.1008630908828343 4.63906283930916 255 255 255
1.4134656153278948 0.124408625605078 4.478632330305206 255 255 255
0.9770764135485889 -0.22716677392623008 4.713513892462868 255 255 255
-0.6717403515822169 -0.06790610001255712 5.176910299132693 255 255 255
-0.5579455377715196 0.768001490438378 4.788825941275379 255 255 255
1.3865139065179866 -1.5453398120463897 4.639260934881607 255 255 255
1.6685548622970097 0.057505265241743514 4.359843434032267 255 255 255
0.06346018746237628 0.01603460116574879 4.945351869350171 255 255 255
-2.199625564202142 -1.6302836155564275 6.324241202066357 255 255 255
1.6175087461848694 -0.2850965537226922 4.4194720734479835 255 255 255
1.0400998077755204 0.4591010875114381 4.6286316600120525 255 255 255
0.24567273479099325 -0.17911836957319466 4.8748899554982055 255 255 255
-0.13832366155648704 0.5587460784485395 4.688341346907403 255 255 255
1.2505324983803352 0.6681196856907434 4.517633467802784 255 255 255
0.3404951071418816 -1.7659063005882227 5.153922500603303 255 255 255
-1.0078563138559633 -1.6191094080222599 5.77900128789738 255 255 255
-0.023708276975103207 0.4366528925917 4.77008180855852 255 255 255
0.8400240635836977 -1.6496239543748794 4.912560913264047 255 255 255
-0.4005194335598032 -0.5486601318563176 5.078302608747414 255 255 255
1.327978613948174 1.0558697136402633 4.444450399771602 255 255 255
1.6191968781437764 -0.14698760394863822 4.408543075819777 255 255 255
-2.691842857089548 1.107934148575433 6.189068587628248 255 255 255
0.5727766574631171 -1.090178702745232 4.979867470987764 255 255 255
-0.876138350380134 0.30798582853330414 5.371421795999211 255 255 255
-0.29766323582418447 -0.8833312659007232 4.913185013647891 255 255 255
1.0437131338865604 0.6811134786966986 4.614581189464852 255 255 255
0.2815557817054859 0.4907766174900016 4.493781662719249 255 255 255
-2.271281493176647 1.1436822632495351 6.103624435535498 255 255 255
0.6333957403438913 -1.354708700892235 4.974666766450862 255 255 255
-2.6436402307848565 0.7397099037386377 6.262188368643039 255 255 255
1.1826822919733102 -0.07067534880314762 4.607305771108247 255 255 255
1.1093630486253063 -1.5253602863993938 4.781143289018569 255 255 255
1.0778612934697673 -1.5240722915258054 4.7914379777599345 255 255 255
-1.3044113570584654 -1.0775326021728853 5.855643009459079 255 255 255
-1.7597562523907713 -1.2199824277794205 6.083124449884891 255 255 255
0.9779877252613421 -1.4902075202906429 4.828245959516816 255 255 255
1.1134601729014095 -1.086993818627337 4.7312187496746985 255 255 255
1.626834498461018 -0.8487434305254627 4.463129827186139 255 255 255
0.36828459217406045 0.10893056083348904 4.7948335184628865 255 255 255
1.553866325632325 0.38143234485105537 4.4021402225559685 255 255 255
-2.252102734867126 -1.4741194932634363 6.326812438264166 255 255 255
1.2277383464303206 0.7510881411564707 4.509190476445045 255 255 255
1.556991407966539 -1.5890159636263563 4.565440566005287 255 255 255
0.9329820651835268 -0.26246509580765637 4.736383479878301 255 255 255
1.0678481937337516 -0.599673696132065 4.72073917024283 255 255 255
1.0304612175114145 -1.0032020843471494 4.758943807335314 255 255 255
1.377816528224009 -1.270871677120739 4.62155613038379 255 255 255
0.7243670487636881 -0.6972469720771872 4.871865109071654 255 255 255
0.3546911062181827 -1.6136248039434538 5.13882756975619 255 255 255
-1.0816926346449292 -1.811931556316461 5.8311011447244345 255 255 255
0.10448914224631864 0.5429428523727202 4.56207138053638 255 255 255
1.7347519886838183 1.2051727696946013 4.146830435292962 255 255 255
-2.3357118716057483 0.898815983354401 6.151382022638027 255 255 255
-0.29474728834721925 0.22368837837610597 4.884395055019511 255 255 255
1.1768593834452385 -0.787089061622363 4.67532398082445 255 255 255
-2.180493643939796 -0.29894049727582855 6.185193360102042 255 255 255
0.28964902065142134 0.10109235601748533 4.823313548349381 255 255 255
1.1401802450582754 -0.25193056083100995 4.640066123639301 255 255 255
-1.7273051050586965 0.5907629838665966 5.907447113110295 255 255 255
-1.333662563823278 0.412336640705909 5.426405365136267 255 255 255
1.3243303985400146 -0.4296977776749952 4.5714181783761045 255 255 255
0.6252050936556437 -0.7597754570887398 4.928045901960153 255 255 255
0.6620148374597425 -0.5015732717210635 4.87829358102557 255 255 255
1.5179295049504604 -0.8558619407707339 4.5117408930739655 255 255 255
1.193825347991063 -0.6032463573563643 4.651935035879029 255 255 255
-0.06646730089205204 0.6727976330463862 4.643962423066584 255 255 255
1.521185484392626 -0.6008862944511641 4.497157388323391 255 255 255
1.6092785226122848 -0.26348193039653267 4.425358500746271 255 255 255
-1.6867422258462725 -0.3461410646892085 5.968419265489564 255 255 255
0.6107966558372616 -1.0678079482353855 4.954789248080461 255 255 255
1.2899325831897916 -0.4465828248966069 4.588021575496952 255 255 255
-2.153424675184647 -0.04051460826092592 6.155814076578465 255 255 255
0.24027526985627543 0.6244872235997213 4.503754134715744 255 255 255
1.2001908901865406 -0.790146850793195 4.662193059705868 255 255 255
1.1391278967767005 -1.1232785513950418 4.719498335054114 255 255 255
1.1063515147000182 0.7027195581878846 4.572762937829623 255 255 255
1.3277017949690195 -0.2561915420908965 4.556050436459774 255 255 255
-1.1831853274706134 0.7053595394938995 5.162153419662116 255 255 255
-2.627873589293773 0.7447496102536126 6.260090763550387 255 255 255
0.45510107321220367 0.29511075225898364 4.742675278041938 255 255 255
0.26636869533752183 -1.4346218881663986 5.15625966712809 255 255 255
1.83978288274004 0.7478568551062641 4.2199541506663545 255 255 255
1.5018705611052012 -0.6199395974649443 4.505904061686282 255 255 255
0.8176118286870501 -0.7483911165682989 4.837657922883277 255 255 255
-1.445003046673487 -0.6857170465860798 5.887255254966613 255 255 255
1.2997362843405051 -0.4098516893529369 4.579776150214579 255 255 255
1.031528778605962 -0.6380081483616448 4.726574045228535 255 255 255
1.8337900559997176 0.03183673201940127 4.2841641504252985 255 255 255
1.0059236687923618 -0.9712936668020642 4.765646941825713 255 255 255
0.09104304061772052 -1.7643092835297198 5.271297410229835 255 255 255
-1.9675367326553623 -0.917048382576417 6.148465381107515 255 255 255
-1.0304641882504548 -0.6184541442084884 5.386418364238381 255 255 255
1.0803408010290392 -1.0941173591738165 4.743208370327915 255 255 255
1.015923365841112 0.41299278570268577 4.6321517964350205 255 255 255
-2.6463262173386366 0.2980356269372222 6.303953358267585 255 255 255
-1.893607781210896 -0.46308477539384 6.069069118065141 255 255 255
1.032259183009895 0.8605154932743814 4.605655594209433 255 255 255
-1.3025108248868225 -1.8407990600136133 5.929175893107027 255 255 255
1.108068684103952 0.11069243325227562 4.630635695124188 255 255 255
1.6161485243637634 -1.6116392898728276 4.536636347925717 255 255 255
0.5731144079307039 -1.3527218748561323 5.002134248866778 255 255 255
-1.3207329843655833 0.44918692761921214 5.434159025844576 255 255 255
-2.0636361070866807 -1.6454021385334123 6.263300159970205 255 255 255
1.2539646057175484 -0.971510829500268 4.664871473388118 255 255 255
-1.6588418193690186 0.3412143207033825 5.897971151010998 255 255 255
1.1044932333586515 -0.7635507155301967 4.703042217946474 255 255 255
-0.9181847903394936 -0.49507935931878433 5.418468641996534 255 255 255
1.5585928529595983 0.6792822785598825 4.372668950857616 255 255 255
0.48463020102179727 -1.392108570160583 5.047094357897246 255 255 255
0.4908411372923016 -1.7876533628057063 5.088060871176503 255 255 255
1.1549803753098435 0.41854064625267484 4.58610729419806 255 255 255
1.1878539385744944 -0.5029758276210177 4.644051952298754 255 255 255
-1.2130366165901383 -1.440936366124714 5.851709840808483 255 255 255
-1.9589686244817257 -0.010825193571381574 6.057166939640754 255 255 255
-0.8644156841032751 -1.762567186929327 5.711782211449733 255 255 255
-0.43851182441558617 -0.028132338478708503 4.984019363884665 255 255 255
1.8196101856584896 1.06490904587631 4.202235862695697 255 255 255
0.6910962616709505 -0.5517633496539336 4.872375239239283 255 255 255
-0.4263166810957688 -0.5500710751903098 5.093067742482548 255 255 255
-2.142960575935355 0.5141292320164343 6.093907917734266 255 255 255
-2.6256987009859407 0.7678754786063107 6.2654420624202505 255 255 255
1.2261372355823226 -0.7897404112095787 4.650011398481795 255 255 255
1.009660920172594 -0.26803921063916636 4.70452079818292 255 255 255
1.3877772137847602 -1.603803931257906 4.641387780816996 255 255 255
1.3485484075880376 0.08326590043336647 4.513177233957729 255 255 255
-2.654658813380015 -0.34508194368326034 6.364464823361294 255 255 255
1.3689143863030646 -0.9889007511096476 4.58802311791924 255 255 255
1.013846671464161 -1.7046114453667838 4.832660684155268 255 255 255
0.7078897049795111 -0.910364464787202 4.9103500711147845 255 255 255
1.0694963646942721 0.2566679725300182 4.629621153265751 255 255 255
0.02442183526233232 -1.6377122621702267 5.288333218087504 255 255 255
1.0240744771852603 0.7033578533577083 4.614268320545457 255 255 255
-0.10686956727732168 0.17713478435287203 4.8918357290807695 255 255 255
0.16144877102006822 -0.08626288336297624 4.9066816317411615 255 255 255
1.5549233818362773 0.7136207817547142 4.371796118171794 255 255 255
0.7912963328046448 -1.7321812297197476 4.936976941567018 255 255 255
-1.1614072105488487 -1.0872924430640543 5.780297102565736 255 255 255
-1.959234130370871 0.6145206688133579 5.996840199077298 255 255 255
-1.8655318328149177 -0.4776745847700496 6.051395486409445 255 255 255
1.0922771768557027 -0.8180205056768478 4.718998825374573 255 255 255
1.6199752560304648 -1.0827264245776909 4.476597400341824 255 255 255
1.7543645337343199 0.6737459231272345 4.271327106362643 255 255 255
1.3510365803532816 -1.163554313967038 4.621413842652861 255 255 255
1.5992820728962867 -0.12133644685953358 4.409350272087037 255 255 255
-2.158801430883844 -1.4496421146514549 6.276945347998918 255 255 255
-1.974081541345392 0.7737782226413333 5.992004749265622 255 255 255
1.1776328682476416 -0.4592023077120974 4.65251450935797 255 255 255
1.6435595038796977 -0.1482374745080142 4.398529133511027 255 255 255
0.9139584599257384 0.583184266728699 4.673218113475078 255 255 255
0.9290768754518854 -1.6887333657368775 4.87416711245295 255 255 255
1.823139355047307 -1.4669032613628799 4.418127009073097 255 255 255
-2.184619472577055 0.7852690844435256 6.09316224204277 255 255 255
-1.063978966849517 -1.735849024269667 5.80197269677582 255 255 255
-1.9950235363612545 -0.018065622754101066 6.076963657166236 255 255 255
1.0794648948819758 -0.5902300538016108 4.712792714519311 255 255 255
