ply
format ascii 1.0
element vertex 692
property float x
property float y
property float z
property uchar red
property uchar green
property uchar blue
end_header
-1.828124192081514 0.7068274167561351 5.088954559881276 255 255 255
1.4612905370633344 0.39455887844840093 4.497859458722648 255 255 255
0.04613769468012949 0.3710630901227916 4.3332820129410825 255 255 255
1.0117276788240896 -1.3192538434075558 4.669149971483242 255 255 255
2.043398930480187 0.653271008892862 4.3595714753606005 255 255 255
-1.2458295763101248 -1.214093690745124 5.09311781980704 255 255 255
1.0375394146171524 -0.5343801774777636 4.624848096169307 255 255 255
-0.226953399268112 -0.7637515841957156 4.603462223401678 255 255 255
1.3169578748011146 0.40148030719408484 4.533217569006751 255 255 255
1.6434039837557248 -0.5496618028141695 4.516583972806383 255 255 255
-0.8199839199020462 -0.24280886166187662 4.799041413910078 255 255 255
2.0175917198998694 1.0112812050538997 4.269942846691069 255 255 255
-1.2458295763101248 -1.214093690745124 5.09311781980704 255 255 255
1.817785110467627 -0.8637100063064828 4.494297989312134 255 255 255
1.4851192175912484 0.8353316930003606 4.468571309851179 255 255 255
1.7625195209975635 0.7086672599113426 4.4173313165965515 255 255 255
0.3090518797679454 0.36570505344968157 4.2857532111699985 255 255 255
1.2861525186430658 0.7577453267972754 4.501677976053019 255 255 255
-1.8345262186928613 0.6962915912738233 5.093771412485294 255 255 255
1.5594400988899666 -0.18089196257916357 4.513560068709169 255 255 255
-2.40440120638101 0.6960744653867091 5.1855784141234285 255 255 255
-2.077534553584207 -0.8367598865706382 5.212871446118541 255 255 255
1.1908232744136673 -0.02774706019149862 4.5752431183459965 255 255 255
1.72198013960183 -0.0065770315180569494 4.466856838286867 255 255 255
0.39942161262402176 -0.2882974933165829 4.567923651401538 255 255 255
1.4852190088316817 0.6183065326187669 4.474278066995178 255 255 255
-2.0477346716762175 -0.8266150877273558 5.214495967414161 255 255 255
-1.3451775466759777 0.3857735154117166 4.582376430714564 255 255 255
-0.9565476761306355 0.3633049379796252 4.523878872892074 255 255 255
-1.8638062208018853 -0.6841737882990511 5.1730604325692005 255 255 255
-2.2816129311613516 -0.8498756912586951 5.2492738488724155 255 255 255
0.9204899168921975 -0.8266650079212988 4.663904733171888 255 255 255
-1.8684554197493046 -0.7012799794400743 5.171397763246016 255 255 255
1.263396096116842 -1.0549596072498937 4.6073133460007725 255 255 255
-2.249890150175541 0.17145285482545602 5.195805329269866 255 255 255
0.9116777235853629 -1.166365184600739 4.684144231988068 255 255 255
1.3644442714971425 0.6679997972549692 4.508419567478067 255 255 255
1.6308200057578384 -1.4130549970797346 4.563359807334335 255 255 255
1.2747233939597813 0.6684047998579776 4.524317891341135 255 255 255
1.265590586697933 -1.0637011279613668 4.6118718130880145 255 255 255
1.2875071596045917 -0.9134923286091684 4.603382467759629 255 255 255
0.09120986125420368 0.35877217947628437 4.3261132965651985 255 255 255
-1.145478557011275 -1.4854245788562535 5.0818504330046395 255 255 255
1.5700411329300081 0.5415108288375468 4.471328051723861 255 255 255
-1.2271971769398815 -1.2056094128705248 5.089273633260747 255 255 255
-1.7121905850610848 -0.27405195724289344 5.11833855116921 255 255 255
-2.111688275746122 -0.8233970932390721 5.216286339131951 255 255 255
0.5004975509359091 -0.27116644161534914 4.549927152378677 255 255 255
1.4852190088316817 0.6183065326187669 4.474278066995178 255 255 255
-0.25737210822433704 -0.765196015154252 4.60928977448317 255 255 255
1.3553137330967786 -0.21648499792827072 4.551310905556849 255 255 255
-2.2921600170861067 -0.3739325803101374 5.226493202985046 255 255 255
1.8409349276318376 -0.02106067731967784 4.449702847310909 255 255 255
-2.5069587688422876 0.4592403330372 5.217768933599922 255 255 255
1.6548502250077208 0.09245226238265083 4.471832235944665 255 255 255
1.8721214502666488 -1.2394335177685107 4.503747781964613 255 255 255
0.9012941935085305 -0.8288467204213695 4.667216241179266 255 255 255
1.3483456276608858 -1.1700691947215769 4.603440191121689 255 255 255
-0.30332169502500905 -0.8514858763167965 4.618699715427141 255 255 255
0.6814724077120019 -1.4085429370061964 4.739930542648765 255 255 255
0.9754114365710008 -0.8397213894749358 4.657175984824235 255 255 255
1.5214276588720677 0.6697862491156317 4.474768105674384 255 255 255
-2.0365138520993478 0.8755463340137757 5.1161554025961555 255 255 255
1.2602664416572114 0.09324632541850081 4.55533432970548 255 255 255
1.001555512287552 -0.9784116247859234 4.652437490324477 255 255 255
-1.9945029272576407 -0.3728148671268399 5.181157423795612 255 255 255
0.9182006979831784 0.5632978180197931 4.107835056600429 255 255 255
-1.3451775466759777 0.3857735154117166 4.582376430714564 255 255 255
-2.3381426752094856 0.9576268224791754 5.156643383938493 255 255 255
0.9049185778941404 -1.1523271451218804 4.681862294828988 255 255 255
1.4052255202543653 0.6300305168788886 4.490298780310756 255 255 255
-0.3088053427459643 0.37341365889878575 4.397518114463787 255 255 255
-1.7803939249307619 -0.08176127934612153 5.134377264560349 255 255 255
-0.4036010118821532 -0.3441288087577411 4.60775856771031 255 255 255
1.9686801364475133 -0.5747772707290493 4.444516116266152 255 255 255
2.0229030164751993 1.108571800405252 4.242083023054395 255 255 255
1.1926320591998227 0.25449867455160546 4.554560856358707 255 255 255
1.5887226708064355 -1.5457727599417392 4.56899558911971 255 255 255
1.5567132610019927 -1.4048667158737216 4.568221820618452 255 255 255
-1.553877369191256 -0.8595786036937971 5.120310042349283 255 255 255
1.7988357984347514 -0.21725135772493726 4.463747581627657 255 255 255
1.4052255202543653 0.6300305168788886 4.490298780310756 255 255 255
1.6027609287317923 -1.386575893009576 4.562699043948536 255 255 255
1.3172694663284297 0.38945349186467565 4.5350423265189885 255 255 255
1.7983982457969465 0.24825469047565474 4.439305013470097 255 255 255
1.4930608262023837 0.8663840078139246 4.459523450218166 255 255 255
-0.26480459681252494 0.37116640633074977 4.39162568494202 255 255 255
0.31963376416801614 0.4239105859325112 4.282784094311184 255 255 255
0.5164513109911545 0.3623780298040643 4.2415801326977585 255 255 255
1.4845448631264466 0.4051619973667717 4.496104493833149 255 255 255
-2.366725488526276 -0.5175217514479433 5.251708996407962 255 255 255
-2.584501356177933 -1.5845645687913 5.3443292192803735 255 255 255
-0.14547430504093783 -0.7241654534780803 4.585358604781038 255 255 255
0.06691153541735119 0.37037244780441386 4.329734336074032 255 255 255
-1.927119546684346 0.3404509551916214 5.126550260374863 255 255 255
-1.780469426662301 -0.9246878500902898 5.164127718822257 255 255 255
-1.1859213448516939 -1.4100970190876672 5.085726000261398 255 255 255
-1.5403918910362504 -0.8522292457204349 5.117848857259602 255 255 255
1.3957529709319483 -0.8580795897804443 4.575477317784114 255 255 255
1.3141064099624866 1.059295765791461 3.7620925685883826 255 255 255
-0.40183742529898575 -0.35959402457706474 4.610148710502573 255 255 255
1.6781191726040074 0.7580314369555972 4.429525492983542 255 255 255
0.7291332058225091 -1.4238070455706968 4.733240292509911 255 255 255
1.6173385551618678 -0.16440329671281328 4.494460127499748 255 255 255
-1.3441610935746242 -1.1810990626194993 5.105811533043575 255 255 255
1.7540414818704289 -0.5513334789487994 4.491220368086615 255 255 255
-0.5716235595304009 -1.5057565029525675 4.500954249773924 255 255 255
-0.8176870668727829 0.43419159655811324 4.48219584441778 255 255 255
-0.49634923153587124 0.4449070534759725 4.427561570424414 255 255 255
0.7268050890374479 0.7776863720607263 4.174726838590996 255 255 255
-1.606984627660542 -1.2077442593588552 5.158005097241629 255 255 255
-1.8985070159162571 -0.3637019988354368 5.159594065316569 255 255 255
1.5076277123113204 -1.2618741538997988 4.568165943297254 255 255 255
-2.4106481876594104 -1.3204396861271603 5.301110119136479 255 255 255
1.5774916415750921 -1.3472245767577802 4.567675889676697 255 255 255
-1.9602112603248028 -0.7937537846861822 5.191492071979418 255 255 255
-1.1166799268972984 0.47996396429377763 4.544601244125916 255 255 255
0.9930381093516212 -1.3273947009270053 4.68121216761631 255 255 255
0.9524659017556605 0.3478539016085216 4.165131620831275 255 255 255
1.2291844179543598 -1.0942958670692378 4.617487652600153 255 255 255
-1.1727969278510642 -0.8392296610601278 5.056892824710631 255 255 255
0.7899629927046117 0.36457130388571213 4.195026696528841 255 255 255
-1.8532836948380298 0.5495764930620558 5.104479214025767 255 255 255
1.3381258817890707 -0.1926833169409282 4.557206200740543 255 255 255
-2.1970530230879617 -1.142068762948826 5.2535271170870566 255 255 255
1.302274962394303 -1.2329875738366365 4.617931359926974 255 255 255
-1.7473873694871727 -0.0956119635146745 5.1287424485715665 255 255 255
1.637984231644466 -1.4271796846490228 4.553763483607835 255 255 255
-1.763903981605029 0.44222907951829166 5.082977855277378 255 255 255
-1.5369291437654733 0.3675725947987713 4.620236085835697 255 255 255
1.2554894513078356 0.8469625492006093 4.513560082064662 255 255 255
1.5823709314660659 0.8563676148309513 4.44899450298992 255 255 255
-0.5330645200862604 0.44509207189515393 4.437289478131495 255 255 255
-1.7059293075700952 -0.2882257767391727 5.119902104545811 255 255 255
-2.4084745088785997 0.9554072132633322 5.1721002718875555 255 255 255
-1.6851280877838286 -0.2752932392215077 5.106218593005167 255 255 255
-1.7860592549716185 -1.1483577457525471 5.187079484636768 255 255 255
0.3409781021105834 -0.27123062471679454 4.579113374267579 255 255 255
0.8089972252687672 -1.5927524654473286 4.730482447321305 255 255 255
-0.8645567740375096 -0.34457768111011366 4.81336514315806 255 255 255
1.840877833635182 -1.4105070445061314 4.521023078678538 255 255 255
0.8880906463955353 -0.8310463021149874 4.671246048012005 255 255 255
1.9712296214218363 0.8122145862852871 4.3711208140205695 255 255 255
1.8608842607492742 -0.013392352519595686 4.436619276513385 255 255 255
1.6579151178355473 0.064462421012161 4.467666034514506 255 255 255
-1.3024201703098923 -1.1277516815078774 5.093690931169213 255 255 255
0.9043516256257258 -0.5314988468465889 4.651107781895565 255 255 255
1.2544423958766235 0.39700338314164757 4.535294688680474 255 255 255
-1.2407758011214285 0.4504435350046277 4.561827517967791 255 255 255
1.2833716370068682 -0.2305829614920462 4.562630296785462 255 255 255
-0.8756503122729817 0.4779254301561066 4.495078228392052 255 255 255
1.8638265871661317 0.8279566161365189 4.4019105635182125 255 255 255
-0.9595057222520257 -0.6599612235659826 4.745101469698311 255 255 255
0.022766176715826536 -0.3047690026226379 4.5325882432103395 255 255 255
1.4317537711685837 0.8508384208301392 4.468389312134848 255 255 255
-1.979033395862426 0.2827867847043376 5.1375695003281585 255 255 255
1.7447625164571505 -0.5309066607296384 4.4777644491926205 255 255 255
1.9134313534444933 0.5577124738185638 4.399956698906832 255 255 255
1.1738753251513168 -1.0750343595604475 4.6328441000853715 255 255 255
-1.9519651172554902 0.44963240725253445 5.123433834648587 255 255 255
-0.22273878918591852 -0.22840665771693702 4.530977645423156 255 255 255
-1.3697339329952227 -0.5353181672071045 5.075072212018234 255 255 255
0.7237613055793521 0.8346276529775234 4.171121815805068 255 255 255
1.5272682076128734 0.5442335075026532 4.4790209900684586 255 255 255
1.7276660709627634 0.646933048737764 4.433425331695336 255 255 255
0.7177447047162837 -0.8478991466114838 4.70295724750723 255 255 255
0.6272822713351581 -1.5826740608458194 4.75839166360339 255 255 255
1.3275394885786058 0.6581218973021895 4.518475638456531 255 255 255
1.611566733207748 -0.15611408201970725 4.4954709460887 255 255 255
0.9183804180956542 -0.8478899585956932 4.664823024098125 255 255 255
1.4534393921428082 -1.4621614725201268 4.59287795793129 255 255 255
2.0308410140903552 -0.4181504963915672 4.427355625224361 255 255 255
1.5004265361090203 -0.19220238086841587 4.521143927556534 255 255 255
-2.1527874993212963 0.5892323540707274 5.139209075004118 255 255 255
1.5676410754204697 0.9770751636423438 4.360850639465246 255 255 255
-0.23194770520381314 -0.025471079748988695 4.422661849176605 255 255 255
-0.4805715725619563 -0.6135252126512484 4.641763631263695 255 255 255
0.9993599092688532 -0.8707068068847149 4.656345258571664 255 255 255
-2.513018987689465 -1.3408255873730994 5.318772200527082 255 255 255
0.6873036647886057 -1.437816544182903 4.741235401901538 255 255 255
1.432443471309457 0.8293152604717174 4.474423123967677 255 255 255
-2.3766617738038365 0.2888970505720247 5.203987974033064 255 255 255
0.9810195138827678 -1.5992285766000875 4.697996482399187 255 255 255
1.6968670707049056 0.5365466368767585 4.444030061066501 255 255 255
1.2420484689967717 -1.580982634109596 4.64626930291576 255 255 255
-1.493314651554363 -0.5404619948325851 5.094720618876604 255 255 255
-1.8655326520377422 -0.08354204811243092 5.140245244169308 255 255 255
1.3163759926997751 -1.1675457089506853 4.612419168615483 255 255 255
0.8222835928034392 -1.4900736855338006 4.712406716620496 255 255 255
0.791998637358247 0.7426395113197032 4.162237533702538 255 255 255
-2.229874720285157 -1.3453257240831173 5.267363915091014 255 255 255
-0.27734859463091516 -0.02221741683119519 4.398252436763338 255 255 255
-1.4689784187426012 -0.6994166113435638 5.103071157534005 255 255 255
1.3348444902406544 -0.03417038171800385 4.54748189383301 255 255 255
-1.4240355105509215 -1.2099259034266556 5.12540511424827 255 255 255
1.6950897453601825 -1.4173527435959974 4.550978836767948 255 255 255
0.022766176715826536 -0.3047690026226379 4.5325882432103395 255 255 255
2.0310700455097637 -0.058189546650728424 4.404926745018025 255 255 255
0.9092675672608925 -0.9412689820591548 4.66590897693696 255 255 255
0.7993152710822076 -1.1967568773873682 4.7000291478601985 255 255 255
1.265277753183477 0.3806292523492915 4.529698352501465 255 255 255
-1.2526395012228186 -0.8444173763365829 5.078423158712074 255 255 255
1.10064428845243 -1.540576509845465 4.663170231633887 255 255 255
-2.5391130593277897 -1.3373576137863592 5.325827753546082 255 255 255
1.416231819674003 -1.4255018638087438 4.607052858346567 255 255 255
-2.1211553998402786 -0.14704666383480508 5.186043320777889 255 255 255
1.3177144517474806 -1.5817008963980133 4.632359220449901 255 255 255
1.4869931313884932 -0.5444503571387919 4.541622023560584 255 255 255
-2.1114811791362786 -0.3613037750962891 5.1980931376606385 255 255 255
-1.0595997278179108 -0.0554671058833553 4.823689060093893 255 255 255
-2.4605612845367024 -1.2018225624373275 5.309694537929263 255 255 255
-1.9972354416776763 -0.10012193417844392 5.155917566197807 255 255 255
1.58522609706961 -1.3070110323567767 4.56620264402888 255 255 255
1.9642046957105543 0.8247512525897436 4.373923769899127 255 255 255
1.2709104077096423 -1.232964067515854 4.625709145897732 255 255 255
-1.4957579904981433 -1.1400361202932852 5.132893979435408 255 255 255
0.9336657336639766 -0.9993183605129061 4.665869819160558 255 255 255
0.8222835928034392 -1.4900736855338006 4.712406716620496 255 255 255
-2.4547905431886607 0.6661586943866772 5.195365620033765 255 255 255
-2.4106481876594104 -1.3204396861271603 5.301110119136479 255 255 255
1.6745239132361907 0.8693457759887837 4.424027525678965 255 255 255
-0.16815055238386278 0.47340647768635324 4.371227311989952 255 255 255
1.4579138289304847 -1.0547640421875686 4.586967867157596 255 255 255
-0.9553823783997801 -1.6600900005830304 5.0579912873661845 255 255 255
1.9415821129169437 0.9777935726569329 4.285076577532714 255 255 255
1.7587414543895252 0.8754163455370295 4.409817680659785 255 255 255
0.10061867882729279 0.05453300121153218 4.503385548317134 255 255 255
-2.1572413176511334 0.3368630510960469 5.153803042797465 255 255 255
-0.7873879390338975 0.44727736934732465 4.476893851063756 255 255 255
-0.43695023354206763 -1.0527990134356064 4.562491370338503 255 255 255
1.582376157648115 -0.8658757994463552 4.533214055417693 255 255 255
-0.03963701897396832 0.3798819864748354 4.349054830745689 255 255 255
0.044061703411032466 -1.0530915240774212 4.439121229994351 255 255 255
-1.8205671592293866 -0.8252693425178743 5.171002386508966 255 255 255
0.9588491246468962 -1.3282903260669472 4.683114773756705 255 255 255
-2.4421968481834053 0.7230584538293879 5.189204029195127 255 255 255
-1.6961602886470155 -1.025414199252488 5.157419345429308 255 255 255
1.5465696528728177 -0.20621895515372715 4.518052304847007 255 255 255
1.6406754461371398 0.8740374663832307 4.436335841609829 255 255 255
-2.406631734116344 -0.36430914811095944 5.246093744264725 255 255 255
0.03721765264998467 -0.00492096367946866 4.519399514970095 255 255 255
0.8428657522720875 -0.6645647162894956 4.668460969471391 255 255 255
0.4057835559972296 -0.07663174524395476 4.497381886221881 255 255 255
1.2958012204867646 0.17885504469264255 4.534468666027242 255 255 255
1.4773830660199345 -0.17188940597898072 4.518851542368591 255 255 255
1.8547082837928934 0.07521935981494059 4.443527432503965 255 255 255
1.2483575255561936 -1.594314693333297 4.641032219694383 255 255 255
2.0209260797576674 0.6088971755804927 4.368902612039706 255 255 255
1.9981330068692347 0.15198247143093982 4.399534809045306 255 255 255
-1.9884465425768998 0.8804202781296759 5.097479573088577 255 255 255
-1.7216185441227376 -0.5318429683120098 5.135044389859421 255 255 255
0.9303601116773172 0.4190845826232662 4.167193441773154 255 255 255
-2.1421393591398825 -1.2358138613870617 5.255226414091002 255 255 255
1.3568957737513312 -0.029140863980038293 4.540050779704434 255 255 255
-1.8639323799188405 -1.2094256444085247 5.201314490978772 255 255 255
0.5586269672721197 -1.312448168695471 4.7533805390777495 255 255 255
-2.2971200362752864 -0.8426762088694459 5.252881534512336 255 255 255
-1.4271590421276232 -0.8435776386209556 5.10374965962093 255 255 255
-2.192944050601461 0.47627320907216736 5.1593883343894 255 255 255
-2.1523515176388575 0.966513874442235 5.1263649917426495 255 255 255
-1.9531967780422728 0.17807058347203067 5.131740656887653 255 255 255
-2.025330283294934 -0.3845041737741841 5.182823282914364 255 255 255
1.1997936800628093 -0.8505458367022006 4.621151450159764 255 255 255
1.6968670707049056 0.5365466368767585 4.444030061066501 255 255 255
-0.30171153454103866 0.013930551454389255 4.406925715743958 255 255 255
1.3564086512092741 0.6034459371001888 4.506352507918991 255 255 255
-1.6044233726435 -1.1763219208511773 5.154450256348966 255 255 255
1.2876597763251465 -1.4783869928495001 4.622121849925075 255 255 255
-1.9439063477996377 -1.5200062884043979 5.236394506525094 255 255 255
0.3028680296177115 -0.7873943860471474 4.6107551953313655 255 255 255
-0.4018193864877253 -0.3139689755853842 4.603644118029474 255 255 255
1.4029455475129897 0.09392352312722646 4.526328554864578 255 255 255
-1.7468919532262996 -0.6917247613772755 5.152228054213827 255 255 255
1.514262786574117 0.6144622361058809 4.4725112594171526 255 255 255
1.3269536891070621 0.2244436514443226 4.534140394097373 255 255 255
1.385385038152396 -1.1763289743234369 4.5989237077939285 255 255 255
-0.2880609990757353 -0.25989354870649634 4.517575798504428 255 255 255
-0.03199809178023355 0.2368609426845789 4.446867751718893 255 255 255
0.9397270832812991 -1.28374021299431 4.686655377637433 255 255 255
1.3013025428882063 -1.0463286547407133 4.606987674159218 255 255 255
0.2337241048119244 -0.8454707216302829 4.6273621546871 255 255 255
1.6184361799611355 0.7205667736577374 4.442967366806218 255 255 255
-1.8864454872382337 -0.5385783655894663 5.163858663663912 255 255 255
1.4766346057358262 -1.3477441679037283 4.584872506108189 255 255 255
-2.366725488526276 -0.5175217514479433 5.251708996407962 255 255 255
1.6828703699841219 0.041955392499601535 4.467437637196391 255 255 255
1.1093448933589949 -1.5931876090937485 4.672556697494335 255 255 255
1.0307496693953977 -1.208621313132775 4.655028462468217 255 255 255
-2.16446112231235 -0.5099612551239158 5.212400857724196 255 255 255
-0.9315800666830155 -0.258928124537202 4.81466297003708 255 255 255
0.6652777661776186 0.3451645163747 4.217983453814973 255 255 255
1.9853534545159457 0.9751446472215599 4.273845832341983 255 255 255
1.095525984444773 -0.5323341419456423 4.6200692048675505 255 255 255
1.666771249232498 -0.18521084008842195 4.486495530017956 255 255 255
2.0649075711768465 1.1085976667078574 4.252592507380866 255 255 255
-0.2235412183747606 0.045133026391628105 4.444541306180414 255 255 255
0.7765580924402837 0.7257217676090587 4.1678911882340985 255 255 255
-2.1874662074097984 -1.0787965376178668 5.248681118242726 255 255 255
-1.9608076510833663 -1.0069054556574815 5.206510350437986 255 255 255
-0.2791085438954745 -0.2528955859239353 4.515367733413658 255 255 255
-0.2596304379100043 -0.9602333671780064 4.586106702177316 255 255 255
1.0177198536692342 -0.538917569857846 4.643803986986271 255 255 255
-2.136797442960591 -0.8436905474776696 5.222333791359565 255 255 255
1.2747044014552655 0.40066229327486674 4.5297429093101504 255 255 255
1.503156245691506 0.7542646969861339 4.463831234858274 255 255 255
-2.2926013474659963 0.8622412354873812 5.152400139008602 255 255 255
1.3556808292383589 -0.011080445643926903 4.542702988393075 255 255 255
-0.6123358805665571 -0.30396310388222963 4.651806545617185 255 255 255
1.1730279465943785 -0.1896672178406962 4.577106073847973 255 255 255
-1.23049492364485 -0.8406602102194263 5.074324208158177 255 255 255
1.4178930188060188 0.506689844223674 4.497161935194316 255 255 255
1.5963843600599414 -0.3947813682715963 4.517862182809929 255 255 255
-1.0349315549722318 -0.036692550251842135 4.827086473504838 255 255 255
0.18214490738823433 0.4714643788409392 4.304471742682681 255 255 255
0.8110545604690536 -1.5771672254769042 4.723771651927081 255 255 255
0.010482406743394911 0.5440259331157283 4.2761838348822465 255 255 255
1.3247787689015917 0.12195535012563714 4.5311495964732655 255 255 255
-1.8842730395541254 0.5550891559802504 5.104341285621969 255 255 255
1.4716550133307942 0.23644625163353944 4.4998684642333515 255 255 255
-2.1114811791362786 -0.3613037750962891 5.1980931376606385 255 255 255
0.9475148612859028 0.3364195887192261 4.1660335509597335 255 255 255
1.6432250968856805 -0.35491839363544747 4.501229589646938 255 255 255
1.5272682076128734 0.5442335075026532 4.4790209900684586 255 255 255
-0.5111927274907663 0.23019482505928548 4.551272700558816 255 255 255
-0.3737150737730036 -0.9176306800910763 4.629815607467186 255 255 255
1.2979455905118602 -0.2961776619785297 4.565610188566612 255 255 255
-1.9798151101022075 -0.8169081589150574 5.18476105252954 255 255 255
0.7039664018810505 -0.8558915793193113 4.711594840176426 255 255 255
-1.411569847451455 -1.397100431724694 5.1261359634320405 255 255 255
1.7690432531352882 -1.0200505259986838 4.509271088765412 255 255 255
1.983764888839133 0.4472702234356235 4.388858186629575 255 255 255
-0.6486869146009405 -1.436438276772045 4.499591928326462 255 255 255
-0.9056561247911046 -0.1091894822851053 4.744873392422835 255 255 255
1.6716078718684413 -1.4665084086424582 4.549567079422196 255 255 255
0.6814724077120019 -1.4085429370061964 4.739930542648765 255 255 255
-0.6333311596344702 -0.592798591350482 4.655758332864177 255 255 255
-2.1262094471092134 0.1861034239506747 5.155740464611977 255 255 255
-1.9606804678087535 -0.8234679771527252 5.195769851158916 255 255 255
-0.4087332496390777 -0.3029108715990785 4.609378566517017 255 255 255
-0.2619615881201616 0.005683643772614715 4.402778051721355 255 255 255
1.5603535709672016 0.8541030066607109 4.4556969105658375 255 255 255
1.6033815066467085 -1.5976478484430794 4.579729913520591 255 255 255
-1.4690385657910352 0.3491555599097975 4.606134585962734 255 255 255
-2.066170636898951 0.34663838750421383 5.149869288389707 255 255 255
0.6734602964355519 -1.595079668726746 4.753706960581615 255 255 255
-2.162126360737383 0.9726353711453937 5.12077819481063 255 255 255
1.7470370400675967 -0.9082198568764371 4.50091903066254 255 255 255
1.2126437183323446 -0.8501553138013789 4.615741667716291 255 255 255
1.63775921016984 0.5333041719019843 4.440476506449406 255 255 255
1.63775921016984 0.5333041719019843 4.440476506449406 255 255 255
-0.49634923153587124 0.4449070534759725 4.427561570424414 255 255 255
-0.31588735219249625 -0.7547907698784699 4.625259740319517 255 255 255
-1.5683020650581854 -0.9969999486406623 5.1390611552580285 255 255 255
-2.1772571649814894 0.964729852725595 5.125880857547368 255 255 255
0.707265461437271 -1.5254612993166037 4.735790949220797 255 255 255
-1.639111923058348 -0.17984010869728528 5.102838177912522 255 255 255
1.7304751839490506 -0.9122478607393257 4.511861482774601 255 255 255
1.2061233167493335 0.2991106144449313 4.54900114341815 255 255 255
1.521615764899968 -0.5263511446785166 4.535530055221547 255 255 255
-0.17039635012598633 -0.7409190352933711 4.590184470616316 255 255 255
2.121200299221962 1.0986269391593286 4.23618189380585 255 255 255
-1.7780951932981375 -1.2041848289733645 5.184074624494455 255 255 255
0.786834301576599 -0.8580813272996076 4.698574910543074 255 255 255
-1.8674548014357917 0.27478271911370344 5.112107546154045 255 255 255
1.3486381884701106 0.1551878833793134 4.523939157417361 255 255 255
1.6641563509251693 0.6322684478671309 4.4422587252931125 255 255 255
1.6193836043796364 0.20406836199562955 4.465877168579153 255 255 255
1.7101818159483804 0.8003763166742154 4.417135388487724 255 255 255
-1.4586313681774516 -0.5247218043437666 5.083525823379228 255 255 255
1.3561900442616697 0.6299119716009248 4.505433704724706 255 255 255
1.6789800744191345 0.09279567675684179 4.466676013213088 255 255 255
-1.9293978460570087 0.7169780271166512 5.11548565152517 255 255 255
0.08105858020738589 -0.3077568612961203 4.52879945655539 255 255 255
1.5599000885056995 -0.4789288315675836 4.525554065395369 255 255 255
-2.039378158973461 -0.2868215695192178 5.184263532269298 255 255 255
1.3918065184522281 0.5958301240134055 4.4928565730335155 255 255 255
0.7029726904729618 -1.5015861588286765 4.7356257085343865 255 255 255
1.3223824085146358 0.8279537860415707 4.50078316730778 255 255 255
-2.377680908905774 -0.39804664154668123 5.235682259857549 255 255 255
-2.071998765672121 0.9683377591599194 5.108209766311626 255 255 255
-0.15719283590411748 0.04891967635446106 4.457805964709406 255 255 255
1.2989859856030075 0.3285324015681316 4.5359822934058185 255 255 255
-1.8295907386575243 0.44455410776780935 5.099433276235308 255 255 255
1.4057661255018348 -0.02660558199316601 4.533660193520942 255 255 255
-1.3021752112680376 0.30361860167593807 4.66204769873879 255 255 255
1.3068922158229084 0.7766965508773332 4.4986608691602 255 255 255
1.5996313361890215 0.6637693704140558 4.452131808407839 255 255 255
-0.07088662078537021 -1.2234350539490975 4.502434915862701 255 255 255
1.5949529267551315 0.40708371606109917 4.480617894700905 255 255 255
0.8727656156746443 -1.524242348714309 4.708869805889421 255 255 255
0.055139055883909986 0.029654286785438293 4.501538310010834 255 255 255
0.9047877284898683 -0.7074052696928198 4.663535865341738 255 255 255
-1.748971509394731 -0.2729242787626034 5.122372538889292 255 255 255
1.2126437183323446 -0.8501553138013789 4.615741667716291 255 255 255
-0.25498582995063446 -0.0349149171287619 4.410298285539727 255 255 255
1.4265366706583142 -1.2239520102257824 4.593022211527389 255 255 255
1.3220500028062414 -1.0640302687440557 4.598766226529805 255 255 255
1.3108821330205835 0.5271573297886823 4.505225820131085 255 255 255
1.590077523868701 -1.4149196889084785 4.569722532652275 255 255 255
0.7652653252811247 0.36870074140366355 4.197229080199084 255 255 255
1.2502631129052424 0.8808867394745694 4.516749297882143 255 255 255
1.597693996480855 0.4381855405889422 4.466619507847242 255 255 255
-0.8176870668727829 0.43419159655811324 4.48219584441778 255 255 255
-0.2596304379100043 -0.9602333671780064 4.586106702177316 255 255 255
1.9703631299514688 -1.071586339394275 4.473165148868262 255 255 255
-1.1303470562367035 -1.4999116621711546 5.0816029857984475 255 255 255
1.6048075305370595 -0.5525231590521398 4.526508563050885 255 255 255
-1.9719612480296214 -0.0871019620179632 5.163630521102342 255 255 255
1.5485191713077195 0.8419294030040728 4.4565277981471505 255 255 255
1.265815132883098 -0.6971144026363825 4.5974864631585275 255 255 255
-2.513018987689465 -1.3408255873730994 5.318772200527082 255 255 255
-0.5752443464970599 -0.5796993506008815 4.5397005369944265 255 255 255
1.3656729840891324 -0.5637161428882871 4.568853936656525 255 255 255
1.6510863814881758 0.6405987034103562 4.445306528482303 255 255 255
0.7908776334224975 -1.3371183347923588 4.721473425954436 255 255 255
1.190854515018572 -0.3955857650308761 4.588719008526185 255 255 255
-0.07499828334398019 -1.0751556324986107 4.474547660748342 255 255 255
1.4156239283453351 -1.4207584497940549 4.597550933658226 255 255 255
0.9134317198150133 -1.5517076145166064 4.702944234947979 255 255 255
1.173781868754436 -1.4309710416013306 4.655503239728898 255 255 255
1.8236096288634442 0.6733503583269953 4.403944102156687 255 255 255
1.9040000791124003 -1.5984104081782018 4.5196377432566335 255 255 255
1.6858879439765089 -1.4500549269373129 4.54402913100881 255 255 255
0.641733271894159 -1.3978885307941324 4.7446970023272 255 255 255
-1.1303470562367035 -1.4999116621711546 5.0816029857984475 255 255 255
-0.3623358010083994 -0.5134216736280593 4.645669108494333 255 255 255
0.8727656156746443 -1.524242348714309 4.708869805889421 255 255 255
2.0175917198998694 1.0112812050538997 4.269942846691069 255 255 255
1.92058940228705 0.530867851214367 4.404805717481162 255 255 255
-2.4537261756687263 -0.40451647482279357 5.266657532358654 255 255 255
0.08225631288267163 0.05009831641776891 4.5065702253719255 255 255 255
-1.7859480550329219 -0.29719976277983207 5.143859157086647 255 255 255
1.380418766750917 -0.6061835207036682 4.563090697467806 255 255 255
0.010482406743394911 0.5440259331157283 4.2761838348822465 255 255 255
0.6680276750640317 -1.6741896475046119 4.750003139140587 255 255 255
1.670985358971607 0.4121474281774555 4.461247288643475 255 255 255
1.9359535264984415 -1.5952325726152174 4.511953548925251 255 255 255
-1.9547103438391888 -0.6804551257077992 5.182631043826361 255 255 255
-2.1572413176511334 0.3368630510960469 5.153803042797465 255 255 255
-2.2843997715454574 -1.1934690700028354 5.280965890705566 255 255 255
-2.107319057351008 0.45575810296465646 5.143812760237275 255 255 255
1.8502118742251639 -0.1967400836039729 4.46177548372957 255 255 255
0.5814012888878684 -1.642806028313024 4.774298718563915 255 255 255
1.3449899422532 0.9046540506768354 4.485584080523345 255 255 255
-2.0998833395129926 -1.009279886206264 5.232509737440152 255 255 255
-1.5202539561458015 0.35094762212307756 4.622286057982942 255 255 255
-2.450206184719777 -0.37001333488242355 5.270955608531218 255 255 255
1.2192951805701218 -0.05447060011704747 4.567305327524474 255 255 255
1.07362945269363 -1.2179612419178807 4.657218537817991 255 255 255
-2.0034381729267423 0.2870213474876891 5.1398097632174276 255 255 255
1.225440451051822 0.7481426557520816 4.515433120474344 255 255 255
0.03570168654244596 -0.2884758816560098 4.532480725335073 255 255 255
-2.233916568331658 0.21974399474513154 5.182682244967204 255 255 255
-1.707835162753191 -1.5408719073783768 5.1885752225714015 255 255 255
-0.8369974949349718 -0.2613183679872966 4.795563485567915 255 255 255
-1.9915990699679753 -0.27977172663485317 5.172255061309733 255 255 255
-0.5488820618486417 -0.40106032374739253 4.629670216174414 255 255 255
-1.5130160909607708 0.7539064987622264 4.581493959240438 255 255 255
1.3874489950184299 -0.7008557740923534 4.571997923937798 255 255 255
1.2061233167493335 0.2991106144449313 4.54900114341815 255 255 255
1.3695216813843534 0.05765908120291737 4.52847749916477 255 255 255
2.0310700455097637 -0.058189546650728424 4.404926745018025 255 255 255
0.8641201650810335 -0.6921912397294426 4.666521859750891 255 255 255
1.104003195704772 0.09778126593521023 4.577115058596677 255 255 255
-2.446927147334505 -0.6724178355560165 5.274201081065041 255 255 255
-1.4465856344795052 0.4351210139141859 4.603520507413144 255 255 255
1.3905670874712568 -0.5452242622191842 4.561750529438898 255 255 255
-0.17039635012598633 -0.7409190352933711 4.590184470616316 255 255 255
-0.029185452122473417 -1.0872437465059364 4.454674932057913 255 255 255
1.3066847016613217 -1.2173743823499814 4.611284851397511 255 255 255
1.703485751586226 -0.0037568102320514668 4.465748784019217 255 255 255
1.4941389284858881 -1.197129314124313 4.571662243303243 255 255 255
1.6493653666039778 0.8529968576719232 4.447219891180524 255 255 255
-1.8921515701745983 -0.2979279309563944 5.170151839567184 255 255 255
-0.4971743460655057 -1.097799212530921 4.544084363389529 255 255 255
-1.6913785006697954 0.22107011653940423 5.085099881548737 255 255 255
1.4071451851925247 0.14860156767959262 4.507578163552213 255 255 255
-1.145918129983974 0.3245417683317081 4.541899299244943 255 255 255
1.3316654822960066 0.8093403765581476 4.485740418043309 255 255 255
0.6042870762311282 -1.39950001774016 4.753367648472797 255 255 255
-0.25670947317844445 -0.5167892996074726 4.597709990866165 255 255 255
-2.2227810808720228 0.1879939705106028 5.180743852196648 255 255 255
-2.061958979411435 1.0995892414352717 5.020449473326817 255 255 255
1.448333793879543 0.15967631245362146 4.506106851549719 255 255 255
-0.3737150737730036 -0.9176306800910763 4.629815607467186 255 255 255
0.612303963079524 -1.5999195157083825 4.759971703132463 255 255 255
1.3975751066501136 -1.2713035371968067 4.592841614544071 255 255 255
1.8522617558877061 -0.05535941966883049 4.444178790665235 255 255 255
0.3028680296177115 -0.7873943860471474 4.6107551953313655 255 255 255
1.6709752818457824 -0.9810556578964506 4.535333275528132 255 255 255
1.9639409590146997 0.06708373389220716 4.417292608240275 255 255 255
-1.926850198769667 -1.5754642093852278 5.241793818165946 255 255 255
0.9118576181897834 0.4336430026490877 4.1650943823843845 255 255 255
-1.3255015443054359 -1.4061424690223836 5.119335303234302 255 255 255
1.4295393682537847 -0.8757668601626156 4.5762367559272406 255 255 255
-1.9192008377556784 0.26200320133006605 5.130485338694108 255 255 255
-0.9480517512734761 0.052549964240972406 4.798765855363886 255 255 255
-1.8606535294582491 0.2852997946646837 5.118216870584185 255 255 255
1.5965377422795677 -1.4491294925769915 4.562875689146881 255 255 255
-0.8477488549862222 0.44702381616430414 4.492698238742687 255 255 255
-0.28142631613737035 -0.33146417242950155 4.574933705485995 255 255 255
1.3660018766432758 -1.4832471374941032 4.609872947611579 255 255 255
-1.6734191259124833 -0.013124856387911004 5.0894540696161865 255 255 255
1.506643548839016 -0.7000331143230664 4.5526145059450505 255 255 255
1.608253979729408 0.023986225386886408 4.483421730263777 255 255 255
-2.4607541269712656 -1.5801144274006225 5.3254505040819 255 255 255
1.2235308759969998 -1.2364992143709943 4.628972274586332 255 255 255
-2.05371273309685 0.3581453758226639 5.14353215041661 255 255 255
0.25256447243476604 -0.06403337376476624 4.586776586798069 255 255 255
-0.2619615881201616 0.005683643772614715 4.402778051721355 255 255 255
-1.8870118750060043 0.15743102949131865 5.128377671474194 255 255 255
-1.7215531463352092 -0.4985127806909841 5.135922213092621 255 255 255
1.5698575791201437 -0.5488822162626036 4.52817840277634 255 255 255
-1.7093911620271747 -0.7004295032783677 5.143931468913428 255 255 255
-0.30332169502500905 -0.8514858763167965 4.618699715427141 255 255 255
1.2264951912942956 0.4120589146323464 4.543441681169589 255 255 255
1.887228948786288 -1.4174890921860839 4.518073088159675 255 255 255
-1.982466910509159 -0.6918899686139915 5.190727807779162 255 255 255
-1.395507711239888 -0.5165823805743481 5.076638238401536 255 255 255
1.3496550708411943 0.5684734569503586 4.510775134061002 255 255 255
1.8202612630467543 -0.3696870510804957 4.475585252032268 255 255 255
1.6065585694477587 -1.232580384953104 4.56213474952519 255 255 255
1.5648236003941014 0.06728749200944383 4.495157661922686 255 255 255
1.5640427935056262 -0.014129595191954517 4.502225827821737 255 255 255
1.3945904827984654 -0.20790431432174888 4.544143582921591 255 255 255
1.1631432191094384 -0.8455570366776651 4.612533628833815 255 255 255
-2.0792962648142366 0.6989772102991207 5.124666511765755 255 255 255
-2.5052730128647336 -1.2046645615985874 5.316939269970147 255 255 255
0.8182506267861852 -1.4696034024176698 4.7151200998119185 255 255 255
-0.3375939574256052 0.07917802683595504 4.500053761074146 255 255 255
1.4815647756069914 0.6862491452438252 4.4692869891096265 255 255 255
-2.3766617738038365 0.2888970505720247 5.203987974033064 255 255 255
1.3220663825163985 -0.3912786677868919 4.57419309734103 255 255 255
-1.3050432498955613 -1.5886484002997747 5.122435253733125 255 255 255
-0.2588890490942548 -0.2182533903257292 4.5188163241530175 255 255 255
-1.7216185441227376 -0.5318429683120098 5.135044389859421 255 255 255
1.5027764238321104 -1.0670747319820904 4.56561331549175 255 255 255
1.8547082837928934 0.07521935981494059 4.443527432503965 255 255 255
1.6828300492122865 0.3051586765268071 4.452584430401608 255 255 255
-0.003001962683184478 -0.4299508699214462 4.528457694425622 255 255 255
1.9981330068692347 0.15198247143093982 4.399534809045306 255 255 255
0.45727852141363795 0.03795032137452658 4.544936600943778 255 255 255
0.5035485537586148 -1.653774708677072 4.781057343771832 255 255 255
-1.193545478697214 -1.215060496959443 5.08117343544855 255 255 255
-1.1701713670910854 0.3492443883590247 4.55771991358043 255 255 255
-0.6038648474444896 0.3609384810695598 4.4620925408347105 255 255 255
1.2957190253016628 -1.281165992515982 4.61316794151951 255 255 255
-0.29802112033983835 -0.017109831741221694 4.404439107690188 255 255 255
0.022541685456080804 -0.024718901254984788 4.517432361536645 255 255 255
1.603217285203827 -1.2370518507584245 4.565036098338728 255 255 255
1.4071451851925247 0.14860156767959262 4.507578163552213 255 255 255
1.6308200057578384 -1.4130549970797346 4.563359807334335 255 255 255
0.881342242736108 -0.5429004949543887 4.652844836885047 255 255 255
-0.29873658945898696 -0.07284901937126174 4.431273826234473 255 255 255
-1.7321048204692047 -0.40536316020638347 5.1298563132482755 255 255 255
-2.485290038412266 -1.303385750125726 5.320159644240414 255 255 255
-0.9323378555648058 -1.3579329169183507 5.033992286216217 255 255 255
2.026609488436581 0.9115363076282518 4.331709254172124 255 255 255
-1.9561785215222833 0.029480881124045875 5.161319760675738 255 255 255
0.5523473908318264 -1.652388204389402 4.771622719171102 255 255 255
-2.2701653558156596 -1.4093623854297577 5.277139999288561 255 255 255
-1.3909024059760349 0.10979869347594443 4.7893453877407435 255 255 255
1.8489898728714365 0.6567281040511447 4.408292840796585 255 255 255
1.9432632486843215 -0.3876972244419057 4.440433183571497 255 255 255
-1.4885908507357095 -1.598234586421759 5.156840436115408 255 255 255
-2.2843997715454574 -1.1934690700028354 5.280965890705566 255 255 255
1.2986551517430625 0.299034388242682 4.540731965717431 255 255 255
-1.3318190275218862 -1.6206168820808076 5.134552187723616 255 255 255
-2.2016341713843173 -1.4135769865222483 5.271858017897687 255 255 255
1.1385298777139603 -0.8565347456990576 4.6329804810599455 255 255 255
-1.5868490292035984 -0.0108880276268406 5.078928344996139 255 255 255
0.3034436633611352 -0.59894592417489 4.6017550708581805 255 255 255
-2.2612075478063707 -1.138122268322138 5.275467926442826 255 255 255
-1.066177438181378 0.37320570054594937 4.549519678179568 255 255 255
1.3660018766432758 -1.4832471374941032 4.609872947611579 255 255 255
1.881658680768855 0.20260340071263758 4.42680687674026 255 255 255
0.6877386664101952 0.361681349186733 4.215684621465781 255 255 255
1.7137547414269902 -0.888551043817233 4.526520991181932 255 255 255
-1.7861734962634614 -0.729150235121765 5.164785137198041 255 255 255
0.9325705522204322 -1.3225851718885622 4.688723326700239 255 255 255
0.6488259628264721 0.11681204718029098 4.508776714854785 255 255 255
-0.29873658945898696 -0.07284901937126174 4.431273826234473 255 255 255
1.571797092209312 -0.214000772377668 4.5125044352705705 255 255 255
1.2026682041702141 -0.028939681823088734 4.57077880248798 255 255 255
0.9325705522204322 -1.3225851718885622 4.688723326700239 255 255 255
-2.2804628636039586 -1.3413782149634925 5.276649243796347 255 255 255
-1.7382516855445704 -0.17865433027892885 5.1377802354533175 255 255 255
1.8448860865691208 -1.0450638831528123 4.500198085203257 255 255 255
0.8428657522720875 -0.6645647162894956 4.668460969471391 255 255 255
-2.1304453667961156 0.2859455825528304 5.153376493153583 255 255 255
1.2337580869056497 0.29842462674000736 4.540828515435408 255 255 255
1.5676410754204697 0.9770751636423438 4.360850639465246 255 255 255
-2.347637972121839 -0.8432895952175871 5.257673355945491 255 255 255
-1.977546708319634 -0.00723294577254373 5.1535816662734035 255 255 255
1.8756628148302068 -1.2575582107236607 4.498632134058739 255 255 255
1.9607330882569132 -1.5928828834795212 4.503033150647109 255 255 255
-0.16545885076132946 -0.8970020886102228 4.593796647151475 255 255 255
1.2643834012211064 0.2562818878238547 4.538115763784418 255 255 255
-0.63919783008951 -1.3917734426945028 4.499184842621353 255 255 255
-0.12156743063118909 -0.7026811645603608 4.582007002355949 255 255 255
1.2571976533757334 -1.2413092352092585 4.624892227070366 255 255 255
1.4007980738115833 -0.894035789852462 4.578007606746494 255 255 255
1.1742825394293228 0.09686879078608401 4.57427136063564 255 255 255
1.6208894837240955 0.5323882697394586 4.471583166337949 255 255 255
-0.2578568226546207 -0.24619394890216104 4.520221739439249 255 255 255
-1.9047804021722334 0.16831716268647212 5.129841164462901 255 255 255
-0.6286916063671337 0.06200396048753821 4.639522241593158 255 255 255
0.5202692910018667 0.4388167956593572 4.244819525312883 255 255 255
-1.1654995441495841 -1.2096335835059115 5.07296285104524 255 255 255
0.9872084142717997 -1.1765248623018425 4.665281022871591 255 255 255
-0.214426774356243 -0.4989005514813896 4.603887509489238 255 255 255
1.887228948786288 -1.4174890921860839 4.518073088159675 255 255 255
1.886059498899135 0.05157549382981561 4.428637264182358 255 255 255
1.9168109890625749 0.9887989676298752 4.291029184046601 255 255 255
-2.4461476694031057 0.7070714898778223 5.189422371908634 255 255 255
1.6250935844468128 0.40305349137176294 4.471389229939507 255 255 255
-1.7452268553160981 0.05033035626981895 5.095992646322685 255 255 255
1.4937302562728187 -0.8686505058850932 4.554369217721579 255 255 255
-0.12156743063118909 -0.7026811645603608 4.582007002355949 255 255 255
1.169056737414498 -1.4961231934948185 4.657193072324923 255 255 255
0.7369104097393678 -1.5257616223068706 4.729681805975566 255 255 255
1.8410509952594738 -1.1156867725304735 4.494278153835559 255 255 255
-2.1712274794326176 0.8707590863843715 5.138321818504979 255 255 255
-0.41006764988429206 -0.7163728773243464 4.632291342455214 255 255 255
-1.0815689247099298 -1.425232128958228 5.079061856584419 255 255 255
0.8172527459072185 -1.3435178704904873 4.7104374025410705 255 255 255
0.09820916712260028 0.5429323150424401 4.256958110458145 255 255 255
1.6063923014170165 -1.6133696745232327 4.576025432269922 255 255 255
-1.8886900930566402 1.0311580493228383 5.004262178060544 255 255 255
-2.489300760092595 0.7193808057151131 5.195771625040981 255 255 255
-1.0956207227397188 0.37500699463240766 4.551003768024057 255 255 255
1.1857837068513093 -0.16206902980760213 4.5795531702294365 255 255 255
1.4654847972555733 -1.1538402267797798 4.574292697450682 255 255 255
-2.318892736746641 0.03668241599907024 5.216092022486838 255 255 255
0.7125381663725839 -0.9706221023366302 4.704720813754701 255 255 255
-1.4696359802043018 -1.4002432077291949 5.1394660553498 255 255 255
-0.2588938819543669 -0.02063399412929373 4.403291698049287 255 255 255
1.6374285985638355 0.8314457730232019 4.433850308929956 255 255 255
1.2240902464449979 -0.08803989606768797 4.5685741098217205 255 255 255
0.9588491246468962 -1.3282903260669472 4.683114773756705 255 255 255
-2.186031344538788 -0.28862185002428464 5.194351812523952 255 255 255
1.9451022432444516 -0.06342186067471417 4.422594814773941 255 255 255
-1.4342363505340971 0.3731414084567777 4.60669127224 255 255 255
0.1305792782090724 -0.0919504306499252 4.504182209518748 255 255 255
-1.6250819875439437 -1.199581285151757 5.160005759638069 255 255 255
-0.2874410917793681 -0.8486384104506579 4.609479604603309 255 255 255
0.05366702678981006 -1.070131353775574 4.438440172120791 255 255 255
-0.2741143592683274 -0.530959567657248 4.585814569051303 255 255 255
-0.6016958558963452 -1.0570273574154982 4.56169711874475 255 255 255
1.2217400435940136 0.21960595157389035 4.553525887996026 255 255 255
1.6510863814881758 0.6405987034103562 4.445306528482303 255 255 255
1.2851324994791897 0.32423872648190544 4.539669009355223 255 255 255
1.6351454152575229 -0.02405975609721618 4.486510565205727 255 255 255
-0.14047063732972181 0.029159819900723992 4.46839391774314 255 255 255
1.0756036695401192 -0.8578278842317552 4.639022679064682 255 255 255
-2.038450031975231 -0.42514318170883625 5.188286386818711 255 255 255
-2.495992059143347 0.6880441035957756 5.186949651469028 255 255 255
0.860020608974448 0.7150448976840378 4.154696706992253 255 255 255
1.186546850643043 0.3062791016043454 4.559805037565442 255 255 255
1.5346141385568393 -0.03991873388642104 4.502948577348766 255 255 255
0.7551042694821067 -1.5781262275109291 4.734780298374672 255 255 255
1.3332228042123264 0.07472991107175297 4.542068029311724 255 255 255
0.991438073776402 -0.9803531701576889 4.655648795698027 255 255 255
0.11889263107437538 -0.236096492051765 4.513332055571293 255 255 255
1.8158184811758697 -0.23801881085586657 4.463475455715157 255 255 255
1.7304751839490506 -0.9122478607393257 4.511861482774601 255 255 255
2.108059980100802 1.0916965342303468 4.244785707284461 255 255 255
1.8094075003226313 0.2833034326511404 4.431162971415319 255 255 255
1.9218237423623752 0.6223247433526097 4.395332585861872 255 255 255
-1.089790089031844 0.4352082188883917 4.543471473777352 255 255 255
0.7296778044030574 0.3516404208799206 4.2066716072121295 255 255 255
-2.1023474560430375 -0.5075256373880326 5.195311677176591 255 255 255
1.423062153376285 -1.573057955907834 4.609168006093161 255 255 255
-2.186031344538788 -0.28862185002428464 5.194351812523952 255 255 255
0.5034597654958355 -1.2974263666831392 4.761450404695788 255 255 255
1.6741342710203575 -0.8821316103109089 4.531678320433803 255 255 255
-0.5511912755755626 -0.022714390057344668 4.635879412151015 255 255 255
-1.5014304861658305 -1.5971706564068593 5.15828495215466 255 255 255
1.8675307918342336 -0.27744812402578506 4.451282224798996 255 255 255
-2.42235230570436 0.16738932430788342 5.218185257166293 255 255 255
-1.289959525958579 -0.688863477949363 5.071873459951033 255 255 255
-1.031881378607121 -1.4153067306519547 5.061069772887621 255 255 255
-0.9235405554975843 -1.3525700136227974 5.035763976974591 255 255 255
1.1842564805772762 0.20080208768871663 4.555508282983022 255 255 255
0.6434698323243265 -1.3890534753164943 4.753073664155566 255 255 255
0.7393566140723836 0.656911305323445 4.173588096787348 255 255 255
1.9078018347522703 -0.8873205045193676 4.469495300540113 255 255 255
1.0272204153425903 -0.6924437086985412 4.642197097247603 255 255 255
1.292067765314493 -0.3803851360876617 4.5877193678027455 255 255 255
0.1305792782090724 -0.0919504306499252 4.504182209518748 255 255 255
0.5817031197034355 0.3050024266925395 4.236648054962092 255 255 255
1.2737364508417097 -0.8659068906586217 4.608264696915442 255 255 255
